# .PCD v0.7 - Point Cloud Data file format
VERSION 0.7
FIELDS x y z
SIZE 4 4 4
TYPE F F F
COUNT 1 1 1
WIDTH 1419
HEIGHT 1
VIEWPOINT 0 0 0 1 0 0 0
POINTS 1419
DATA ascii
-0.1323722 -0.23399125 1.48218
-0.13010956 -0.23473375 1.4868832
-0.1278591 -0.23552991 1.4919264
-0.12573875 -0.2366052 1.4987376
-0.12370433 -0.23789294 1.5068946
-0.12209222 -0.24006899 1.5206784
-0.28156349 -0.23306453 1.493377
-0.27646297 -0.23105359 1.4804918
-0.27259731 -0.23004554 1.4740326
-0.26917714 -0.22939725 1.4698787
-0.26591879 -0.22887538 1.4665347
-0.26270515 -0.22838186 1.4633725
-0.25950655 -0.22789155 1.4602307
-0.25638661 -0.22746094 1.4574716
-0.25333542 -0.22708303 1.4550501
-0.25035784 -0.2267639 1.4530053
-0.24738863 -0.22644567 1.4509662
-0.24446881 -0.22616634 1.4491763
-0.24163762 -0.22596382 1.4478787
-0.23882008 -0.2257698 1.4466355
-0.23600735 -0.22557609 1.4453943
-0.2332259 -0.22540827 1.444319
-0.23048092 -0.22527231 1.4434478
-0.22774105 -0.22513829 1.442589
-0.22500445 -0.22500445 1.4417315
-0.22229552 -0.22489546 1.4410331
-0.21959752 -0.22479509 1.44039
-0.21690191 -0.22469479 1.4397473
-0.21422552 -0.22461221 1.4392182
-0.21157433 -0.22455435 1.4388474
-0.20892452 -0.22449653 1.4384769
-0.20629857 -0.22446322 1.4382635
-0.20369361 -0.2244522 1.4381928
-0.20110245 -0.22445628 1.4382191
-0.1985272 -0.22447847 1.4383612
-0.19597884 -0.22453204 1.4387045
-0.19342925 -0.22458564 1.4390479
-0.19087809 -0.22463885 1.4393889
-0.18834457 -0.22471455 1.4398739
-0.18581361 -0.22479548 1.4403925
-0.18328483 -0.2248814 1.440943
-0.18075414 -0.22496739 1.441494
-0.17823607 -0.22507182 1.4421631
-0.17574197 -0.22521009 1.4430491
-0.17325255 -0.22535859 1.4440006
-0.17075984 -0.22550727 1.4449533
-0.16827126 -0.22566609 1.445971
-0.16579433 -0.22584581 1.4471226
-0.16333447 -0.22605491 1.4484624
-0.1608862 -0.2262871 1.4499501
-0.15844859 -0.2265422 1.4515847
-0.15600808 -0.22680165 1.4532472
-0.15358979 -0.22710285 1.4551771
-0.15117148 -0.22741449 1.4571739
-0.14874654 -0.22772701 1.4591764
-0.14634515 -0.2280875 1.4614863
-0.14395021 -0.22847143 1.4639463
-0.14154634 -0.2288553 1.466406
-0.13916993 -0.22929902 1.4692492
-0.13680007 -0.22977099 1.4722733
-0.13451485 -0.23040663 1.4763463
-0.13222437 -0.23105875 1.4805248
-0.12997513 -0.23181131 1.4853469
-0.12774692 -0.23263387 1.4906175
-0.12559004 -0.23362449 1.4969649
-0.12346854 -0.23472591 1.5040224
-0.12161846 -0.23640442 1.5147775
-0.28106353 -0.22996107 1.4907252
-0.27612844 -0.2281061 1.4787003
-0.27255175 -0.22734803 1.4737861
-0.26912987 -0.22670545 1.4696206
-0.26582152 -0.22614665 1.4659982
-0.2626043 -0.22565494 1.4628106
-0.25943899 -0.22519831 1.4598505
-0.25635701 -0.22480538 1.4573034
-0.25330326 -0.22442932 1.4548656
-0.25032616 -0.22411399 1.4528214
-0.24735735 -0.22379951 1.4507828
-0.24445185 -0.22353619 1.4490758
-0.24162942 -0.22334395 1.4478296
-0.23881198 -0.22315219 1.4465865
-0.23599935 -0.22296071 1.4453453
-0.23321649 -0.2227934 1.4442607
-0.23046376 -0.22265142 1.4433403
-0.22772409 -0.22251897 1.4424816
-0.2249877 -0.22238669 1.4416242
-0.22227795 -0.22227795 1.4409193
-0.2195802 -0.22217879 1.4402764
-0.21689019 -0.22208516 1.4396695
-0.21421929 -0.22200908 1.4391763
-0.21156818 -0.22195189 1.4388056
-0.20891844 -0.22189474 1.4384351
-0.20628105 -0.22184943 1.4381413
-0.20366246 -0.22182344 1.4379729
-0.20108554 -0.22184275 1.4380981
-0.19851214 -0.2218665 1.4382521
-0.19596396 -0.22191945 1.4385953
-0.19341455 -0.22197242 1.4389386
-0.19086048 -0.22202137 1.439256
-0.18832579 -0.22209455 1.4397304
-0.18579498 -0.22217442 1.4402481
-0.18326233 -0.22225432 1.4407661
-0.1807279 -0.22233431 1.4412847
-0.17820202 -0.22242732 1.4418876
-0.17571171 -0.22256815 1.4428005
-0.17322269 -0.22271489 1.4437517
-0.1707304 -0.22286181 1.4447042
-0.16824831 -0.22302683 1.4457738
-0.16577169 -0.2232044 1.446925
-0.16329114 -0.22338229 1.4480782
-0.16084987 -0.22362055 1.4496226
-0.15841335 -0.22387342 1.4512619
-0.15597601 -0.22413361 1.4529486
-0.15355249 -0.22442287 1.4548237
-0.15113941 -0.22473773 1.4568648
-0.14871955 -0.22505347 1.4589117
-0.14631586 -0.22540551 1.4611937
-0.14391486 -0.22577469 1.4635869
-0.14150801 -0.22614831 1.4660089
-0.13913395 -0.22658956 1.4688693
-0.1367666 -0.22705911 1.4719132
-0.13444498 -0.22762468 1.4755795
-0.13217007 -0.22829375 1.4799167
-0.12992969 -0.22905131 1.4848276
-0.1277021 -0.22986379 1.4900945
-0.12553088 -0.23081484 1.4962598
-0.12337951 -0.23184502 1.5029379
-0.12138937 -0.23323125 1.5119241
-0.28047198 -0.22679314 1.4875877
-0.27600273 -0.22533555 1.4780271
-0.27250615 -0.22465141 1.4735396
-0.26908261 -0.22401458 1.4693625
-0.26577494 -0.22346252 1.4657414
-0.26250359 -0.22293019 1.4622498
-0.25940901 -0.22253869 1.4596819
-0.25632745 -0.22215046 1.4571353
-0.25327113 -0.22177629 1.454681
-0.25029445 -0.22146471 1.4526373
-0.24735312 -0.22117819 1.450758
-0.24444458 -0.22091515 1.4490327
-0.24162124 -0.22072427 1.4477806
-0.23880392 -0.22053477 1.4465376
-0.23599139 -0.22034556 1.4452965
-0.23320708 -0.22017875 1.4442024
-0.23045239 -0.22003646 1.4432691
-0.22770715 -0.21990004 1.4423743
-0.22497098 -0.21976934 1.441517
-0.22226042 -0.21966088 1.4408056
-0.21956287 -0.21956287 1.4401628
-0.21688412 -0.21948153 1.4396292
-0.21421306 -0.21940611 1.4391345
-0.21156205 -0.21934962 1.438764
-0.20891322 -0.21929401 1.4383992
-0.20627671 -0.2192501 1.4381112
-0.20365185 -0.21921758 1.4378979
-0.20107137 -0.21923265 1.4379967
-0.19849744 -0.21925534 1.4381456
-0.19594911 -0.21930727 1.4384862
-0.19339725 -0.21935661 1.4388099
-0.19084282 -0.21940432 1.4391228
-0.18830703 -0.21947509 1.439587
-0.18577647 -0.21955401 1.4401046
-0.18324406 -0.21963295 1.4406224
-0.18071142 -0.21971388 1.4411533
-0.17819054 -0.21981171 1.4417949
-0.17568143 -0.21992713 1.442552
-0.17319284 -0.22007211 1.4435029
-0.17070095 -0.22021726 1.444455
-0.16822533 -0.22038823 1.4455764
-0.16574906 -0.22056369 1.4467274
-0.16327403 -0.2207465 1.4479264
-0.16083091 -0.22097905 1.4494518
-0.15839942 -0.22123554 1.4511342
-0.15596229 -0.22149266 1.4528207
-0.15353377 -0.221771 1.4546463
-0.15112096 -0.22208211 1.456687
-0.14870137 -0.22239408 1.4587333
-0.14630052 -0.22274585 1.4610406
-0.14389977 -0.22311065 1.4634334
-0.14149699 -0.22348589 1.4658947
-0.1391203 -0.22391744 1.4687253
-0.13674226 -0.22436352 1.4716513
-0.1344139 -0.22491039 1.4752383
-0.13213894 -0.2255705 1.4795681
-0.12988429 -0.22629324 1.4843087
-0.12765732 -0.22709566 1.489572
-0.12547177 -0.22800785 1.4955553
-0.12331416 -0.22901201 1.5021418
-0.12131843 -0.2303687 1.5110407
-0.28015643 -0.22385705 1.485914
-0.27601171 -0.22267613 1.4780753
-0.27246055 -0.22195567 1.4732931
-0.26903537 -0.22132465 1.4691045
-0.26573074 -0.22078127 1.4654976
-0.26249558 -0.22028524 1.4622051
-0.25938693 -0.21988638 1.4595575
-0.25629792 -0.21949616 1.4569674
-0.25323904 -0.21912393 1.4544966
-0.25028387 -0.21883459 1.452576
-0.24735133 -0.21855912 1.4507475
-0.24443729 -0.21829428 1.4489895
-0.24161306 -0.21810476 1.4477316
-0.23879583 -0.2179175 1.4464886
-0.23598343 -0.21773057 1.4452478
-0.23319766 -0.2175643 1.4441441
-0.23044311 -0.21742372 1.443211
-0.2276921 -0.21728331 1.442279
-0.22495423 -0.21715236 1.4414097
-0.22224289 -0.21704422 1.4406919
-0.2195546 -0.21695633 1.4401085
-0.21687809 -0.21687809 1.4395891
-0.21420683 -0.21680328 1.4390926
-0.21155591 -0.21674746 1.4387221
-0.20890851 -0.21669392 1.4383668
-0.20627238 -0.21665086 1.4380809
-0.20365104 -0.21662244 1.4378923
-0.20106363 -0.21662985 1.4379414
-0.19848347 -0.21664535 1.4380443
-0.19593249 -0.21669355 1.4383643
-0.19337939 -0.21674065 1.438677
-0.19082519 -0.2167878 1.4389899
-0.18828829 -0.21685617 1.4394437
-0.18575796 -0.21693413 1.4399612
-0.18322669 -0.21701317 1.4404858
-0.18069607 -0.21709529 1.4410309
-0.17817909 -0.2171964 1.4417021
-0.17566942 -0.21730956 1.4424533
-0.173163 -0.21743023 1.4432542
-0.17067443 -0.21757732 1.4442306
-0.1682024 -0.2177504 1.4453794
-0.16573535 -0.21793546 1.4466078
-0.16326474 -0.21812168 1.4478439
-0.16081679 -0.21834473 1.4493245
-0.15838549 -0.21859816 1.4510067
-0.15594855 -0.21885216 1.4526926
-0.15351865 -0.2191249 1.4545031
-0.15110251 -0.21942712 1.4565091
-0.1486858 -0.2197392 1.4585806
-0.14628521 -0.22008674 1.4608876
-0.14388467 -0.22044715 1.4632798
-0.14148596 -0.22082388 1.4657805
-0.13910665 -0.22124581 1.4685812
-0.13673057 -0.22168937 1.4715254
-0.13439348 -0.22221497 1.4750142
-0.13210781 -0.22284853 1.4792197
-0.12984256 -0.22354339 1.483832
-0.12761258 -0.22432949 1.4890499
-0.12541273 -0.22520351 1.4948516
-0.12324888 -0.22618201 1.5013466
-0.12125154 -0.22751693 1.5102075
-0.28795713 -0.22517975 1.5128113
-0.28016284 -0.22118118 1.485948
-0.27602068 -0.22001649 1.4781233
-0.27245915 -0.2192964 1.4732856
-0.2689988 -0.21864434 1.4689049
-0.26574129 -0.21814583 1.4655558
-0.26250198 -0.2176524 1.4622407
-0.25938651 -0.21725264 1.4595551
-0.25629124 -0.21686181 1.4569294
-0.25322178 -0.21648493 1.4543974
-0.25028208 -0.21621226 1.4525656
-0.24734955 -0.21594007 1.450737
-0.24443002 -0.21567355 1.4489464
-0.24160567 -0.21548614 1.4476873
-0.23878774 -0.21530043 1.4464396
-0.23597543 -0.21511573 1.4451988
-0.23318826 -0.21495007 1.4440858
-0.23043379 -0.21481116 1.4431527
-0.2276829 -0.21467246 1.4422208
-0.22493748 -0.21453576 1.4413024
-0.22222684 -0.21442942 1.440588
-0.21954846 -0.21435206 1.4400682
-0.21687201 -0.21427473 1.4395489
-0.2142006 -0.2142006 1.4390508
-0.21154976 -0.21414545 1.4386803
-0.2089038 -0.21409397 1.4383343
-0.20626806 -0.21405175 1.4380507
-0.20365028 -0.21402737 1.437887
-0.20106286 -0.21403466 1.4379359
-0.198475 -0.21404167 1.437983
-0.1959144 -0.21407865 1.4382315
-0.19336152 -0.21412517 1.438544
-0.19080757 -0.21417175 1.438857
-0.18826953 -0.21423775 1.4393003
-0.18573959 -0.21431491 1.4398187
-0.18321112 -0.21439599 1.4403634
-0.18068071 -0.21447709 1.4409083
-0.17816764 -0.21458146 1.4416095
-0.17565812 -0.21469325 1.4423605
-0.17314596 -0.21480514 1.4431123
-0.17065425 -0.2149462 1.4440598
-0.16819219 -0.21512954 1.4452916
-0.16572593 -0.21531321 1.4465256
-0.16325545 -0.21549721 1.4477617
-0.16080624 -0.21571569 1.4492295
-0.15837157 -0.21596123 1.4508791
-0.15593483 -0.21621215 1.4525648
-0.15350622 -0.21648312 1.4543853
-0.15108407 -0.21677279 1.4563314
-0.1486719 -0.21708727 1.4584441
-0.14627033 -0.21742886 1.460739
-0.14386958 -0.21778423 1.4631264
-0.14147492 -0.21816227 1.4656662
-0.13909303 -0.21857475 1.4684373
-0.13671885 -0.21901566 1.4713994
-0.13437307 -0.21952035 1.4747901
-0.13207671 -0.22012785 1.4788715
-0.1298117 -0.22081372 1.4834793
-0.12756786 -0.22156522 1.488528
-0.12535857 -0.22241037 1.494206
-0.12318606 -0.22335935 1.5005814
-0.12118472 -0.22466831 1.5093753
-0.11957785 -0.2267856 1.5235997
-0.28706154 -0.22175844 1.5081062
-0.28016922 -0.21850517 1.4859818
-0.27604276 -0.21736701 1.4782416
-0.27246803 -0.21664532 1.4733335
-0.26901034 -0.21600337 1.4689679
-0.26575181 -0.21551017 1.4656138
-0.26250896 -0.21501991 1.4622797
-0.25938606 -0.21461892 1.4595526
-0.25629079 -0.21423282 1.4569269
-0.25322342 -0.21386226 1.4544069
-0.25028026 -0.21358997 1.4525551
-0.24734776 -0.21332107 1.4507265
-0.24442272 -0.21305296 1.4489031
-0.24159849 -0.21286786 1.4476442
-0.23877968 -0.21268353 1.4463907
-0.23596747 -0.21250109 1.44515
-0.23317884 -0.21233603 1.4440275
-0.23042451 -0.21219884 1.4430945
-0.22767372 -0.21206181 1.4421626
-0.2249265 -0.21192497 1.441232
-0.22222066 -0.21182436 1.4405478
-0.21954234 -0.21174794 1.4400281
-0.21686596 -0.21167156 1.4395087
-0.2141944 -0.2115981 1.4390091
-0.21154362 -0.21154362 1.4386386
-0.20889908 -0.2114941 1.4383018
-0.20626464 -0.21145369 1.438027
-0.20364951 -0.21143229 1.4378815
-0.20106211 -0.21143952 1.4379306
-0.19847073 -0.21144266 1.437952
-0.1959065 -0.21147524 1.4381735
-0.19334461 -0.21151121 1.4384181
-0.19078994 -0.21155618 1.438724
-0.1882508 -0.21161985 1.439157
-0.18572381 -0.21169917 1.4396964
-0.18319555 -0.21177925 1.440241
-0.18066534 -0.21185935 1.4407858
-0.1781562 -0.21196686 1.4415169
-0.17564683 -0.21207727 1.4422678
-0.17313573 -0.2121889 1.4430269
-0.17064457 -0.21232873 1.4439778
-0.16818264 -0.21250986 1.4452096
-0.16571651 -0.21269128 1.4464434
-0.16324712 -0.21287425 1.4476877
-0.16079947 -0.21309198 1.4491684
-0.15835765 -0.21332477 1.4507515
-0.1559211 -0.21357261 1.452437
-0.15349381 -0.2138418 1.4542677
-0.15106565 -0.21411915 1.4561539
-0.14865795 -0.2144358 1.4583074
-0.1462566 -0.21477321 1.4606019
-0.1438545 -0.21512187 1.462973
-0.14146391 -0.21550108 1.465552
-0.13907936 -0.21590416 1.4682932
-0.13670717 -0.2163424 1.4712735
-0.13435265 -0.21682656 1.4745661
-0.13204563 -0.21740845 1.4785234
-0.12978086 -0.21808538 1.4831269
-0.12752317 -0.2188029 1.4880066
-0.12531093 -0.21963097 1.493638
-0.12312789 -0.22054777 1.4998728
-0.12111799 -0.22182283 1.5085441
-0.11949001 -0.22387208 1.5224804
-0.286686 -0.21875094 1.5061333
-0.2801756 -0.21582904 1.4860157
-0.27608469 -0.21473254 1.478466
-0.27247685 -0.21399403 1.4733813
-0.26903015 -0.21336874 1.4690762
-0.26576236 -0.21287434 1.465672
-0.26251936 -0.21239005 1.4623376
-0.25938562 -0.21198522 1.4595503
-0.25629038 -0.21160385 1.4569246
-0.25323063 -0.21124421 1.4544483
-0.25027812 -0.21096742 1.4525427
-0.24734598 -0.21070214 1.4507161
-0.24442087 -0.21043722 1.4488921
-0.24159127 -0.21024971 1.4476011
-0.23877203 -0.2100672 1.4463445
-0.23595947 -0.2098866 1.445101
-0.23316942 -0.20972222 1.4439692
-0.23041521 -0.20958672 1.4430363
-0.22766455 -0.20945138 1.4421045
-0.22492328 -0.20932166 1.4412113
-0.22221668 -0.20922156 1.4405221
-0.2195362 -0.20914395 1.4399878
-0.21685989 -0.20906852 1.4394684
-0.21418817 -0.20899573 1.4389672
-0.21153872 -0.20894314 1.4386052
-0.20889437 -0.20889437 1.4382694
-0.20626272 -0.20885721 1.4380136
-0.20364875 -0.20883726 1.4378761
-0.20106135 -0.20884436 1.4379251
-0.19846644 -0.20884377 1.4379209
-0.1959022 -0.20887586 1.4381419
-0.19334036 -0.20891139 1.4383866
-0.19077766 -0.20894696 1.4386314
-0.18823421 -0.20900488 1.4390303
-0.18570805 -0.20908388 1.4395742
-0.18317999 -0.20916297 1.4401187
-0.18065135 -0.20924364 1.4406742
-0.17814474 -0.20935257 1.4414241
-0.17563553 -0.20946163 1.442175
-0.17313012 -0.20957857 1.4429802
-0.17064054 -0.20971853 1.4439439
-0.1681731 -0.20989046 1.4451276
-0.1657071 -0.21006963 1.4463612
-0.16324028 -0.21025348 1.4476271
-0.16079272 -0.21046852 1.4491076
-0.15834372 -0.21068875 1.450624
-0.15590738 -0.21093351 1.4523091
-0.15348139 -0.21120088 1.4541501
-0.15105031 -0.21147044 1.4560061
-0.14864404 -0.21178487 1.4581709
-0.1462429 -0.21211807 1.4604651
-0.1438394 -0.21246003 1.4628195
-0.14145289 -0.21284033 1.4654379
-0.13906573 -0.21323411 1.4681492
-0.13669547 -0.21366961 1.4711477
-0.13433224 -0.21413356 1.474342
-0.13202003 -0.21469924 1.4782368
-0.12975004 -0.21535832 1.4827746
-0.12747853 -0.21604255 1.4874856
-0.12526333 -0.21685372 1.4930707
-0.12306979 -0.21773887 1.4991651
-0.12105133 -0.21898049 1.5077138
-0.11943092 -0.22101584 1.5217276
-0.2866137 -0.21597905 1.5057535
-0.28020504 -0.21317033 1.4861718
-0.27612659 -0.21209724 1.4786905
-0.27248573 -0.21134259 1.4734292
-0.26905411 -0.21073696 1.4692069
-0.26577291 -0.21023828 1.4657302
-0.26252976 -0.20975997 1.4623955
-0.25938565 -0.20935187 1.4595504
-0.25628996 -0.20897488 1.4569222
-0.25323787 -0.20862602 1.4544899
-0.25027475 -0.20834391 1.4525231
-0.24734423 -0.20808323 1.4507058
-0.24441911 -0.20782161 1.4488817
-0.24158409 -0.20763174 1.447558
-0.23876493 -0.20745149 1.4463015
-0.23595151 -0.20727232 1.4450523
-0.23316002 -0.20710862 1.443911
-0.23040591 -0.2069748 1.442978
-0.22765814 -0.20684369 1.4420639
-0.22492389 -0.20672196 1.4412153
-0.22221585 -0.20662175 1.4405167
-0.21953118 -0.20654117 1.4399549
-0.21685386 -0.20646565 1.4394283
-0.21418196 -0.20639353 1.4389255
-0.21153392 -0.20634291 1.4385726
-0.20888965 -0.20629475 1.4382368
-0.20626076 -0.20626076 1.4379998
-0.20364797 -0.20624222 1.4378706
-0.20106059 -0.20624925 1.4379197
-0.19846216 -0.20624499 1.4378899
-0.19589789 -0.20627658 1.4381102
-0.1933361 -0.20631167 1.4383548
-0.19077344 -0.20634679 1.4385997
-0.18822202 -0.20639518 1.4389371
-0.18569227 -0.20646903 1.4394519
-0.18316443 -0.20654713 1.4399964
-0.18063974 -0.20663108 1.4405817
-0.17813328 -0.20673864 1.4413315
-0.17562905 -0.20685199 1.4421219
-0.17312454 -0.20696844 1.4429337
-0.17063884 -0.20711127 1.4439294
-0.16816354 -0.20727134 1.4450455
-0.16569768 -0.20744827 1.4462789
-0.16323343 -0.20763291 1.4475663
-0.16078596 -0.20784527 1.4490467
-0.15833347 -0.20805803 1.4505301
-0.15589365 -0.20829488 1.4521813
-0.15346897 -0.20856039 1.4540324
-0.15103929 -0.20882823 1.4558997
-0.14863013 -0.20913441 1.4580344
-0.14622918 -0.20946342 1.4603281
-0.14382432 -0.20979878 1.4626662
-0.14144187 -0.21017997 1.4653237
-0.13905315 -0.21056619 1.4680164
-0.13668378 -0.21099728 1.4710218
-0.1343144 -0.21144545 1.4741464
-0.1319997 -0.21199951 1.4780091
-0.12971921 -0.21263254 1.4824224
-0.12744285 -0.2132991 1.4870695
-0.12521575 -0.21407855 1.4925036
-0.12301173 -0.21493259 1.4984578
-0.12098549 -0.21614261 1.5068938
-0.11937188 -0.21816242 1.5209754
-0.28657681 -0.21323489 1.5055597
-0.2802771 -0.21054308 1.486554
-0.27616856 -0.20946117 1.4789151
-0.27251235 -0.20870458 1.4735731
-0.26908776 -0.20811222 1.4693907
-0.26578602 -0.20760401 1.4658024
-0.26254016 -0.20712969 1.4624535
-0.25939193 -0.20672353 1.4595858
-0.25628954 -0.20634593 1.4569198
-0.25324509 -0.20600767 1.4545314
-0.25027138 -0.20572045 1.4525036
-0.24734199 -0.20546398 1.4506927
-0.24441735 -0.20520601 1.4488713
-0.2415769 -0.2050139 1.4475149
-0.23875785 -0.20483597 1.4462585
-0.23594366 -0.20465831 1.4450042
-0.2331506 -0.20449522 1.4438527
-0.23039661 -0.20436311 1.4429199
-0.22765878 -0.20424245 1.442068
-0.2249245 -0.20412225 1.4412192
-0.22221504 -0.20402201 1.4405115
-0.21953036 -0.2039424 1.4399495
-0.21684778 -0.20386289 1.439388
-0.21417573 -0.20379145 1.4388837
-0.21152915 -0.2037428 1.4385402
-0.20888607 -0.20369636 1.4382123
-0.2062588 -0.20366435 1.4379863
-0.20364721 -0.20364721 1.4378653
-0.20105785 -0.20365214 1.4379001
-0.19845787 -0.2036463 1.4378588
-0.1958936 -0.20367745 1.4380788
-0.19333187 -0.20371209 1.4383234
-0.19076481 -0.20374201 1.4385346
-0.18821469 -0.20379108 1.438881
-0.18567853 -0.20385684 1.4393454
-0.18314888 -0.20393172 1.4398741
-0.18062815 -0.20401885 1.4404892
-0.17812498 -0.20412862 1.4412643
-0.17562337 -0.20424348 1.4420753
-0.17311893 -0.20435844 1.4428869
-0.17063715 -0.20450407 1.4439151
-0.16815399 -0.20465252 1.4449633
-0.16568825 -0.2048272 1.4461967
-0.16322659 -0.20501259 1.4475056
-0.16077921 -0.20522223 1.4489858
-0.1583268 -0.20543231 1.450469
-0.15588106 -0.20565821 1.452064
-0.15345737 -0.20592143 1.4539225
-0.15103212 -0.20619169 1.4558307
-0.14862099 -0.20649113 1.4579449
-0.14621614 -0.20681021 1.4601978
-0.14381066 -0.20714013 1.4625273
-0.14143084 -0.20752002 1.4652095
-0.1390423 -0.20790134 1.4679018
-0.13667208 -0.2083254 1.4708959
-0.13430296 -0.20876797 1.4740207
-0.13197936 -0.20930061 1.4777814
-0.12968843 -0.20990808 1.4820706
-0.12741251 -0.21056594 1.4867154
-0.12516822 -0.21130548 1.491937
-0.12295888 -0.21213785 1.4978139
-0.12092124 -0.21331051 1.5060936
-0.11927909 -0.21525078 1.519793
-0.28660899 -0.21054216 1.5057287
-0.28036755 -0.20792808 1.4870337
-0.27621049 -0.20682427 1.4791397
-0.27254656 -0.20607178 1.4737581
-0.26912147 -0.20548683 1.4695747
-0.26580557 -0.20497444 1.4659103
-0.26255056 -0.20449917 1.4625113
-0.25939822 -0.20409505 1.4596212
-0.25628909 -0.20371698 1.4569173
-0.25325233 -0.20338917 1.4545729
-0.25026801 -0.20309706 1.4524839
-0.24733865 -0.20284387 1.4506731
-0.2444156 -0.20259047 1.4488609
-0.24156971 -0.20239624 1.4474719
-0.23875074 -0.20222057 1.4462155
-0.23593666 -0.2020452 1.4449613
-0.23314118 -0.20188203 1.4437944
-0.23039688 -0.20175998 1.4429215
-0.2276594 -0.20164119 1.4420719
-0.22492513 -0.20152251 1.4412233
-0.22221419 -0.20142223 1.440506
-0.21952952 -0.20134366 1.439944
-0.21684696 -0.20126514 1.4393826
-0.21416979 -0.2011898 1.4388437
-0.21152699 -0.20114529 1.4385254
-0.2088856 -0.20110103 1.4382089
-0.20625684 -0.20106798 1.4379725
-0.20364645 -0.20105223 1.4378599
-0.2010535 -0.2010535 1.437869
-0.19845358 -0.20104775 1.4378278
-0.19588929 -0.20107841 1.4380472
-0.19332762 -0.20111263 1.4382918
-0.19075593 -0.2011372 1.4384676
-0.18820736 -0.20118718 1.438825
-0.1856713 -0.2012521 1.4392893
-0.18313362 -0.2013171 1.4397541
-0.18061796 -0.20140851 1.4404079
-0.17811924 -0.20152177 1.4412179
-0.17561771 -0.20163515 1.4420288
-0.17311719 -0.20175311 1.4428724
-0.17063546 -0.20189692 1.4439008
-0.16815016 -0.20204088 1.4449304
-0.16567884 -0.20220646 1.4461145
-0.16321972 -0.20239244 1.4474447
-0.16077244 -0.20259942 1.4489249
-0.15832014 -0.2028068 1.450408
-0.15586889 -0.20302251 1.4519507
-0.15345012 -0.20328863 1.4538538
-0.151025 -0.20355542 1.4557619
-0.14861198 -0.20384829 1.4578564
-0.14620726 -0.20416328 1.4601091
-0.14380005 -0.20448631 1.4624193
-0.14142051 -0.20486148 1.4651024
-0.13903223 -0.20523804 1.4677955
-0.13666068 -0.20565441 1.4707732
-0.13429178 -0.20609136 1.4738981
-0.13195905 -0.20660254 1.477554
-0.12965763 -0.20718487 1.4817185
-0.12738217 -0.20783406 1.4863614
-0.12512849 -0.20854749 1.4914635
-0.12293009 -0.20938642 1.4974633
-0.12087717 -0.21051642 1.5055447
-0.11918117 -0.21233428 1.5185454
-0.28684804 -0.20799881 1.5069846
-0.28045809 -0.20531143 1.487514
-0.27625281 -0.20418686 1.4793663
-0.27258077 -0.20343833 1.4739431
-0.26915517 -0.20286079 1.4697587
-0.26582512 -0.20234451 1.4660182
-0.26256096 -0.20186849 1.4625694
-0.25940454 -0.20146647 1.4596567
-0.25628868 -0.20108804 1.4569149
-0.25325954 -0.20077051 1.4546144
-0.25026461 -0.20047376 1.4524643
-0.24733531 -0.20022383 1.4506536
-0.24441329 -0.19997451 1.4488472
-0.24156252 -0.19977872 1.4474287
-0.23874409 -0.19960572 1.4461752
-0.23593178 -0.19943406 1.4449315
-0.23313823 -0.19927458 1.4437761
-0.23039751 -0.19915718 1.4429255
-0.22766003 -0.19903991 1.4420758
-0.22492576 -0.19892277 1.4412272
-0.22221337 -0.19882248 1.4405006
-0.21952873 -0.19874494 1.4399388
-0.21684617 -0.19866745 1.4393773
-0.21416904 -0.19859311 1.4388387
-0.2115265 -0.1985494 1.4385221
-0.20888519 -0.1985058 1.4382062
-0.2062549 -0.1984717 1.4379591
-0.20364568 -0.19845726 1.4378544
-0.20104916 -0.19845498 1.437838
-0.19844928 -0.19844928 1.4377967
-0.19588499 -0.1984795 1.4380156
-0.19332124 -0.19851106 1.4382443
-0.19074704 -0.19853263 1.4384005
-0.18820003 -0.19858348 1.438769
-0.18566407 -0.19864757 1.4392333
-0.18312649 -0.19871172 1.4396981
-0.18061212 -0.19880328 1.4403614
-0.17811348 -0.19891506 1.4411713
-0.17561203 -0.19902697 1.4419822
-0.17311548 -0.19914788 1.4428581
-0.17063375 -0.1992898 1.4438864
-0.16814847 -0.19943191 1.444916
-0.16566941 -0.19958599 1.4460323
-0.16321287 -0.19977254 1.4473839
-0.16076568 -0.19997683 1.448864
-0.15831377 -0.20018187 1.4503496
-0.15586203 -0.20039405 1.4518868
-0.15344287 -0.20065607 1.4537852
-0.15101784 -0.20091939 1.455693
-0.14860296 -0.20120579 1.457768
-0.14619838 -0.20151667 1.4600204
-0.14379022 -0.20183396 1.4623193
-0.14141081 -0.20220424 1.4650019
-0.13902268 -0.20257589 1.4676946
-0.13664931 -0.20298393 1.4706509
-0.13428059 -0.20341514 1.4737751
-0.13194306 -0.20391199 1.4773749
-0.12962705 -0.20446327 1.481369
-0.12735248 -0.20510451 1.4860148
-0.12510714 -0.20582142 1.491209
-0.12290904 -0.20664926 1.4972068
-0.12084497 -0.20774473 1.5051436
-0.11908454 -0.20942454 1.5173142
-0.28702074 -0.20540348 1.5078919
-0.28054515 -0.20269051 1.4879757
-0.27629516 -0.20154865 1.4795932
-0.27261248 -0.20080237 1.4741147
-0.26918888 -0.20023409 1.4699428
-0.2658447 -0.19971418 1.4661261
-0.26257557 -0.19924076 1.4626507
-0.25941086 -0.19883777 1.4596922
-0.25629529 -0.19846457 1.4569526
-0.25326675 -0.19815172 1.4546559
-0.25026125 -0.19785051 1.4524447
-0.24733199 -0.19760387 1.450634
-0.24441242 -0.19735977 1.448842
-0.24156485 -0.19716915 1.4474428
-0.23874769 -0.19699946 1.446197
-0.23593535 -0.19683005 1.4449533
-0.23313934 -0.19667062 1.4437829
-0.23039815 -0.19655435 1.4429294
-0.22766064 -0.19643861 1.4420798
-0.22492637 -0.19632301 1.4412311
-0.22221257 -0.19622278 1.4404954
-0.21952792 -0.19614623 1.4399334
-0.21684536 -0.19606976 1.4393719
-0.21416871 -0.19599682 1.4388366
-0.21152601 -0.19595353 1.4385188
-0.20888536 -0.19591111 1.4382073
-0.20625357 -0.19587603 1.4379498
-0.20364477 -0.19586216 1.437848
-0.20104481 -0.19585656 1.4378068
-0.19844501 -0.19585095 1.4377657
-0.1958807 -0.1958807 1.437984
-0.19331223 -0.19590703 1.4381773
-0.19073814 -0.19592831 1.4383335
-0.18819273 -0.19598 1.4387131
-0.18565686 -0.19604325 1.4391774
-0.18312226 -0.19610965 1.4396648
-0.18060724 -0.19619924 1.4403225
-0.17810775 -0.19630854 1.4411249
-0.17560637 -0.19641899 1.4419357
-0.17311375 -0.19654267 1.4428437
-0.17063205 -0.19668275 1.443872
-0.1681468 -0.196823 1.4449016
-0.16566001 -0.19696583 1.4459502
-0.16320601 -0.19715287 1.4473232
-0.16075936 -0.19735499 1.448807
-0.15830867 -0.19755875 1.4503028
-0.15585579 -0.19776659 1.4518286
-0.15343563 -0.19802375 1.4537165
-0.15101071 -0.19828363 1.4556242
-0.14859396 -0.19856361 1.4576796
-0.1461895 -0.19887039 1.4599317
-0.14378278 -0.19918531 1.4622437
-0.14140111 -0.19954738 1.4649016
-0.13901313 -0.19991413 1.4675939
-0.13663796 -0.2003139 1.4705287
-0.13426942 -0.20073941 1.4736525
-0.13192804 -0.20122358 1.4772068
-0.12960254 -0.20175241 1.481089
-0.12733638 -0.20239782 1.4858271
-0.12508579 -0.20309629 1.4909545
-0.12288797 -0.203913 1.4969501
-0.1208128 -0.20497452 1.5047429
-0.11902554 -0.20658456 1.5165623
-0.28063133 -0.20006731 1.4884329
-0.27633756 -0.19890964 1.4798201
-0.27261695 -0.19814597 1.4741387
-0.26922259 -0.19760673 1.4701269
-0.26586425 -0.19708344 1.4662338
-0.26259586 -0.19661699 1.4627637
-0.25942573 -0.19621541 1.4597759
-0.25630507 -0.19584337 1.4570081
-0.25327402 -0.1955328 1.4546976
-0.25025788 -0.19522735 1.4524252
-0.24732867 -0.19498397 1.4506146
-0.24441646 -0.19474895 1.448866
-0.24156848 -0.19456056 1.4474645
-0.23875128 -0.19439311 1.4462187
-0.23593889 -0.19422594 1.444975
-0.23314092 -0.19406702 1.4437927
-0.23039879 -0.19395152 1.4429334
-0.22766128 -0.19383733 1.4420838
-0.22492698 -0.19372323 1.4412351
-0.22221172 -0.19362307 1.4404899
-0.2195271 -0.19354756 1.4399281
-0.21684454 -0.19347209 1.4393666
-0.21416955 -0.19340159 1.4388422
-0.21152551 -0.19335768 1.4385154
-0.20888552 -0.19331641 1.4382085
-0.20625372 -0.19328178 1.4379508
-0.20364039 -0.19326381 1.4378171
-0.20104049 -0.19325829 1.437776
-0.19844073 -0.19325274 1.4377347
-0.19587639 -0.19328199 1.4379524
-0.19330321 -0.19330321 1.4381102
-0.19072926 -0.19332422 1.4382665
-0.18818539 -0.19337671 1.438657
-0.1856506 -0.19344014 1.4391289
-0.18311858 -0.19350828 1.4396359
-0.18060611 -0.19359936 1.4403135
-0.178102 -0.19370218 1.4410784
-0.17560069 -0.19381113 1.441889
-0.17311202 -0.19393753 1.4428293
-0.17063035 -0.19407573 1.4438576
-0.16814512 -0.19421414 1.4448872
-0.16565636 -0.19435273 1.4459183
-0.1631998 -0.19453415 1.447268
-0.1607542 -0.19473477 1.4487605
-0.15830357 -0.19493581 1.4502562
-0.15584955 -0.19513935 1.4517704
-0.15342838 -0.1953917 1.4536479
-0.15100355 -0.19564809 1.4555553
-0.14858493 -0.19592172 1.4575911
-0.1461806 -0.19622441 1.4598429
-0.1437756 -0.19653729 1.4621706
-0.14139143 -0.19689086 1.4648011
-0.13900356 -0.19725268 1.4674929
-0.1366266 -0.19764431 1.4704065
-0.13425823 -0.1980641 1.4735297
-0.13191304 -0.19853579 1.4770387
-0.12958775 -0.19905747 1.48092
-0.1273203 -0.19969185 1.4856395
-0.12506573 -0.20037414 1.4907155
-0.12286693 -0.20117772 1.4966938
-0.12078062 -0.20220576 1.5043422
-0.11896568 -0.20374581 1.5157996
-0.28071758 -0.1974425 1.4888903
-0.27637994 -0.19626983 1.4800472
-0.27262136 -0.19548948 1.4741627
-0.26924533 -0.19497076 1.4702511
-0.2658838 -0.19445233 1.4663417
-0.2626206 -0.19399612 1.4629015
-0.25944126 -0.19359322 1.4598633
-0.25631976 -0.19322567 1.4570916
-0.25328243 -0.19291459 1.4547458
-0.25026214 -0.19261013 1.4524499
-0.24733196 -0.19236931 1.4506339
-0.24442048 -0.19213803 1.4488899
-0.24157213 -0.1919519 1.4474863
-0.23875487 -0.19178671 1.4462405
-0.23594245 -0.19162178 1.4449968
-0.23314248 -0.19146338 1.4438024
-0.2303994 -0.19134866 1.4429373
-0.22766189 -0.19123599 1.4420877
-0.22492757 -0.19112343 1.4412389
-0.2222109 -0.19102341 1.4404846
-0.21952628 -0.19094889 1.4399227
-0.21684374 -0.19087443 1.4393612
-0.21417038 -0.19080634 1.4388478
-0.21152502 -0.19076183 1.4385121
-0.20888568 -0.19072171 1.4382095
-0.20625389 -0.19068757 1.437952
-0.20363629 -0.19066583 1.4377881
-0.20103614 -0.19066009 1.4377449
-0.19843645 -0.19065464 1.4377037
-0.19586752 -0.19067898 1.4378873
-0.19329423 -0.19069967 1.4380434
-0.19072038 -0.19072038 1.4381995
-0.18817806 -0.19077362 1.438601
-0.18564689 -0.19083981 1.4391001
-0.18311492 -0.19090705 1.4396071
-0.18060498 -0.19099951 1.4403044
-0.17809625 -0.19109598 1.4410318
-0.17559503 -0.19120349 1.4418426
-0.17311031 -0.19133244 1.4428151
-0.17062865 -0.19146879 1.4438432
-0.16814345 -0.19160533 1.4448729
-0.16565293 -0.19174001 1.4458884
-0.16319457 -0.19191681 1.4472216
-0.16074905 -0.19211471 1.448714
-0.15829848 -0.19231303 1.4502095
-0.1558433 -0.1925123 1.4517123
-0.1534211 -0.19275986 1.4535789
-0.1509964 -0.19301279 1.4554863
-0.14857593 -0.19328019 1.4575027
-0.14617173 -0.19357878 1.4597543
-0.14376841 -0.1938895 1.4620975
-0.14138173 -0.19423471 1.4647007
-0.13899402 -0.19459164 1.4673922
-0.13661525 -0.19497515 1.4702842
-0.13424703 -0.19538926 1.4734069
-0.13189802 -0.19584857 1.4768705
-0.12957296 -0.19636314 1.4807509
-0.12730421 -0.19698651 1.4854517
-0.12504676 -0.19765456 1.4904894
-0.12284587 -0.19844334 1.4964374
-0.1207485 -0.19943853 1.503942
-0.11891712 -0.20092893 1.5151809
-0.28080383 -0.19481607 1.4893478
-0.27642235 -0.19362919 1.4802743
-0.2726258 -0.19283289 1.4741867
-0.26924968 -0.19232121 1.4702749
-0.26590499 -0.19182201 1.4664586
-0.26264533 -0.19137473 1.4630393
-0.25945684 -0.19097076 1.4599509
-0.25633508 -0.19060814 1.4571787
-0.25329086 -0.19029625 1.4547943
-0.25027028 -0.18999577 1.4524971
-0.24733604 -0.18975517 1.4506578
-0.24442452 -0.18952703 1.4489138
-0.24157429 -0.18934201 1.4474993
-0.23875846 -0.1891802 1.4462622
-0.23594598 -0.1890175 1.4450184
-0.23314406 -0.18885972 1.4438121
-0.23040003 -0.18874578 1.4429412
-0.2276625 -0.18863465 1.4420916
-0.2249282 -0.18852364 1.4412429
-0.22221006 -0.18842374 1.4404792
-0.21952544 -0.18835023 1.4399172
-0.21684293 -0.1882768 1.4393559
-0.21417122 -0.18821107 1.4388534
-0.21152453 -0.18816599 1.4385087
-0.20888583 -0.188127 1.4382106
-0.20625405 -0.18809332 1.4379531
-0.20363741 -0.18807276 1.437796
-0.20103402 -0.18806408 1.4377297
-0.19843218 -0.18805663 1.4376727
-0.19585839 -0.18807594 1.4378203
-0.1932852 -0.18809634 1.4379762
-0.1907115 -0.18811677 1.4381325
-0.18817331 -0.18817331 1.4385647
-0.18564317 -0.18823957 1.4390713
-0.18311125 -0.1883059 1.4395783
-0.18060385 -0.18839969 1.4402953
-0.17809454 -0.18849422 1.441018
-0.17558937 -0.188596 1.4417961
-0.17310858 -0.18872739 1.4428006
-0.17062636 -0.18886124 1.4438238
-0.16813901 -0.18899347 1.4448347
-0.16564818 -0.18912587 1.4458469
-0.16318932 -0.18929961 1.4471751
-0.16074388 -0.1894948 1.4486674
-0.1582934 -0.18969043 1.4501629
-0.15583783 -0.18988644 1.4516613
-0.15341488 -0.19012955 1.4535199
-0.15098926 -0.19037777 1.4554175
-0.14856692 -0.19063897 1.4574144
-0.14616285 -0.19093345 1.4596657
-0.14376122 -0.19124199 1.4620245
-0.14137203 -0.19157892 1.4646002
-0.13898532 -0.19193211 1.4673003
-0.13660389 -0.19230644 1.470162
-0.13423626 -0.19271542 1.4732887
-0.13188301 -0.19316198 1.4767026
-0.12955932 -0.19367115 1.4805951
-0.12728813 -0.19428188 1.4852641
-0.12502778 -0.19493578 1.4902631
-0.12282485 -0.19570991 1.4961812
-0.12071636 -0.19667272 1.5035418
-0.11886859 -0.19811432 1.5145626
-0.2808902 -0.19218802 1.4898058
-0.27645209 -0.19097897 1.4804335
-0.272632 -0.19017744 1.4742202
-0.26925406 -0.18967158 1.4702988
-0.26592851 -0.18919292 1.4665883
-0.2626701 -0.18875287 1.4631772
-0.25947246 -0.18834803 1.4600388
-0.25635043 -0.18799031 1.4572659
-0.25329933 -0.18767774 1.4548429
-0.25027889 -0.1873816 1.4525472
-0.24734014 -0.18714096 1.4506818
-0.24442855 -0.18691595 1.4489377
-0.24157415 -0.1867303 1.4474984
-0.23876207 -0.18657362 1.4462841
-0.23594955 -0.18641317 1.4450402
-0.23314564 -0.18625601 1.4438219
-0.23040147 -0.18614356 1.4429502
-0.22766314 -0.18603331 1.4420956
-0.22492883 -0.18592383 1.4412469
-0.22220922 -0.18582408 1.4404737
-0.21952462 -0.1857516 1.4399118
-0.21684326 -0.18568015 1.439358
-0.21417205 -0.18561578 1.438859
-0.21152405 -0.18557018 1.4385055
-0.20888603 -0.1855323 1.4382119
-0.20625421 -0.18549907 1.4379543
-0.20363852 -0.18547967 1.4378039
-0.20103513 -0.18547112 1.4377376
-0.1984316 -0.18546222 1.4376686
-0.1958521 -0.18547583 1.4377741
-0.19327855 -0.18549553 1.4379268
-0.19070448 -0.18551524 1.4380796
-0.18816955 -0.1855741 1.4385359
-0.18563947 -0.18563947 1.4390426
-0.18310951 -0.18570681 1.4395646
-0.18060271 -0.18579993 1.4402864
-0.17809342 -0.18589313 1.4410089
-0.17558491 -0.18598995 1.4417595
-0.17310525 -0.18612067 1.4427729
-0.17062144 -0.18625088 1.4437822
-0.16813417 -0.1863813 1.4447931
-0.1656442 -0.18651277 1.4458122
-0.163184 -0.18668249 1.4471279
-0.16073871 -0.18687509 1.4486209
-0.1582883 -0.187068 1.4501163
-0.15583281 -0.18726128 1.4516146
-0.15340872 -0.18749955 1.4534616
-0.15098213 -0.18774299 1.4553487
-0.14855789 -0.18799804 1.4573258
-0.14615467 -0.18828934 1.459584
-0.14375404 -0.18859474 1.4619514
-0.14136234 -0.18892351 1.4644998
-0.1389766 -0.1892729 1.4672083
-0.13659318 -0.18963906 1.4700468
-0.13422567 -0.19004227 1.4731723
-0.131868 -0.190476 1.4765345
-0.12954587 -0.19097999 1.4804413
-0.12727205 -0.19157794 1.4850765
-0.12500879 -0.19221783 1.4900368
-0.12280381 -0.19297743 1.4959251
-0.12068425 -0.19390841 1.5031419
-0.1188201 -0.19530199 1.5139447
-0.28097004 -0.18955396 1.4902294
-0.27647904 -0.1883263 1.4805778
-0.27264073 -0.18752362 1.4742674
-0.26925844 -0.18702188 1.4703227
-0.26594296 -0.18655701 1.466668
-0.26269484 -0.18613051 1.463315
-0.25948805 -0.18572494 1.4601265
-0.25636572 -0.18537214 1.4573529
-0.25330779 -0.18505906 1.4548914
-0.25028768 -0.18476735 1.4525982
-0.24734423 -0.18452664 1.4507058
-0.2444326 -0.18430479 1.4489616
-0.241574 -0.18411857 1.4474976
-0.23876564 -0.18396696 1.4463058
-0.23595308 -0.18380876 1.4450619
-0.23314719 -0.18365225 1.4438316
-0.23040302 -0.18354139 1.4429599
-0.22766377 -0.18343195 1.4420996
-0.22492944 -0.18332399 1.4412508
-0.22220841 -0.18322447 1.4404684
-0.2195238 -0.18315299 1.4399065
-0.2168441 -0.18308394 1.4393636
-0.21417287 -0.18302046 1.4388645
-0.21152356 -0.18297437 1.4385022
-0.20888618 -0.18293759 1.438213
-0.20625441 -0.18290485 1.4379556
-0.20363963 -0.18288654 1.4378117
-0.20103623 -0.18287812 1.4377455
-0.19843015 -0.18286701 1.4376581
-0.19584763 -0.18287759 1.4377413
-0.19327414 -0.18289702 1.437894
-0.19070464 -0.18292078 1.4380809
-0.18816578 -0.18297501 1.4385072
-0.18563576 -0.18303946 1.4390138
-0.18310837 -0.18310837 1.4395556
-0.18060158 -0.18320017 1.4402773
-0.1780923 -0.18329208 1.4409999
-0.17558208 -0.18338573 1.4417362
-0.17310026 -0.18351232 1.4427314
-0.17061654 -0.1836407 1.4437407
-0.16812934 -0.18376927 1.4447515
-0.16564153 -0.18390122 1.4457889
-0.16317855 -0.1840654 1.4470797
-0.16073355 -0.18425554 1.4485744
-0.15828322 -0.18444572 1.4500697
-0.15582781 -0.18463629 1.4515679
-0.15340257 -0.18486977 1.4534034
-0.15097497 -0.18510845 1.4552798
-0.14854887 -0.18535745 1.4572374
-0.14614739 -0.18564668 1.4595113
-0.14374685 -0.18594776 1.4618783
-0.14135264 -0.18626843 1.4643993
-0.1389679 -0.18661404 1.4671164
-0.13658459 -0.18697502 1.4699544
-0.13421507 -0.18736956 1.4730561
-0.131853 -0.18779063 1.4763665
-0.12953243 -0.18828939 1.4802877
-0.12725599 -0.18887468 1.484889
-0.12499127 -0.18950289 1.4898279
-0.12278278 -0.19024585 1.4956689
-0.12065216 -0.19114555 1.5027422
-0.11877165 -0.19249199 1.5133275
-0.28104952 -0.18691811 1.4906509
-0.27650598 -0.18567309 1.4807221
-0.2726495 -0.18486966 1.4743148
-0.26926282 -0.18437207 1.4703466
-0.26595742 -0.1839208 1.4667478
-0.2627196 -0.18350767 1.4634531
-0.25950366 -0.18310156 1.4602144
-0.25638106 -0.18275368 1.4574401
-0.25331753 -0.18244113 1.4549475
-0.25029647 -0.18215293 1.4526491
-0.24734806 -0.18191206 1.4507283
-0.24443662 -0.18169352 1.4489855
-0.24157383 -0.18150683 1.4474965
-0.23876925 -0.18136024 1.4463276
-0.23595662 -0.18120426 1.4450836
-0.23314889 -0.18104857 1.4438421
-0.2304046 -0.1809392 1.4429698
-0.2276644 -0.18083057 1.4421035
-0.22493005 -0.18072414 1.4412547
-0.22220758 -0.18062487 1.4404631
-0.219523 -0.18055442 1.4399012
-0.21684493 -0.18048769 1.4393691
-0.2141737 -0.18042512 1.4388701
-0.21152307 -0.18037857 1.4384989
-0.20888634 -0.18034287 1.4382141
-0.20625459 -0.18031062 1.4379569
-0.20364076 -0.18029341 1.4378197
-0.20103733 -0.18028508 1.4377533
-0.19842954 -0.18027259 1.4376537
-0.19584316 -0.18027946 1.4377085
-0.19326974 -0.18029861 1.4378612
-0.19070596 -0.1803274 1.4380908
-0.18816443 -0.18037832 1.4384968
-0.18563206 -0.18043956 1.4389852
-0.18310721 -0.18050995 1.4395466
-0.18060045 -0.18060045 1.4402683
-0.17809078 -0.18069065 1.4409876
-0.17558172 -0.18078415 1.4417332
-0.17309532 -0.18090414 1.4426901
-0.17061165 -0.18103069 1.4436994
-0.16812453 -0.18115743 1.4447101
-0.16563885 -0.18128976 1.4457655
-0.16317311 -0.1814485 1.4470314
-0.16072838 -0.18163614 1.4485278
-0.15827812 -0.18182364 1.4500231
-0.15582278 -0.18201149 1.4515212
-0.15339643 -0.18224019 1.4533451
-0.15096827 -0.1824747 1.4552152
-0.14853987 -0.18271719 1.457149
-0.14614008 -0.18300425 1.4594383
-0.14373967 -0.18330105 1.4618052
-0.14134295 -0.18361375 1.464299
-0.13895918 -0.18395549 1.4670243
-0.13657601 -0.18431133 1.4698621
-0.13420448 -0.18469726 1.4729398
-0.13184094 -0.18511002 1.4762316
-0.12951896 -0.18559933 1.4801338
-0.12723963 -0.18617167 1.4846982
-0.12497544 -0.18679126 1.4896393
-0.12276177 -0.18751524 1.4954129
-0.12062008 -0.18838418 1.5023426
-0.11872324 -0.18968426 1.5127107
-0.281129 -0.18428074 1.4910724
-0.27653295 -0.18301938 1.4808664
-0.27265826 -0.18221551 1.4743621
-0.26926717 -0.18172218 1.4703704
-0.2659719 -0.18128432 1.4668275
-0.26274437 -0.18088432 1.463591
-0.25951928 -0.18047786 1.4603022
-0.25639644 -0.18013494 1.4575275
-0.25332761 -0.17982322 1.4550053
-0.25030527 -0.17953834 1.4527003
-0.24734889 -0.17929523 1.4507332
-0.24444066 -0.17908219 1.4490094
-0.24157369 -0.17889512 1.4474957
-0.23877282 -0.17875342 1.4463493
-0.23596017 -0.17859969 1.4451053
-0.23315237 -0.17844623 1.4438636
-0.23040614 -0.17833695 1.4429795
-0.22766523 -0.17822936 1.4421089
-0.22493067 -0.17812429 1.4412588
-0.22220673 -0.17802528 1.4404576
-0.21952216 -0.17795584 1.4398957
-0.21684577 -0.17789145 1.4393747
-0.21417452 -0.17782976 1.4388756
-0.21152258 -0.17778279 1.4384955
-0.20888649 -0.17774813 1.4382151
-0.20625477 -0.17771637 1.4379581
-0.20364188 -0.17770024 1.4378276
-0.20103845 -0.17769204 1.4377613
-0.19842947 -0.17767867 1.4376531
-0.1958409 -0.17768346 1.4376918
-0.19326535 -0.17770036 1.4378285
-0.19070725 -0.17773397 1.4381006
-0.18816335 -0.17778192 1.4384886
-0.1856287 -0.17784008 1.4389591
-0.18310608 -0.17791158 1.4395376
-0.18059894 -0.17800039 1.4402562
-0.17808907 -0.17808907 1.4409738
-0.17558137 -0.17818257 1.4417303
-0.17309034 -0.17829607 1.4426486
-0.17060675 -0.1784208 1.4436579
-0.16811968 -0.1785457 1.4446685
-0.16563615 -0.17867838 1.445742
-0.16316767 -0.17883176 1.4469831
-0.16072322 -0.17901692 1.4484813
-0.15827304 -0.17920171 1.4499764
-0.15581776 -0.17938684 1.4514744
-0.15339027 -0.17961083 1.4532868
-0.15096222 -0.17984195 1.4551568
-0.14853087 -0.18007724 1.4570607
-0.1461328 -0.18036209 1.4593655
-0.14373249 -0.18065459 1.4617321
-0.14133328 -0.18095943 1.4641987
-0.13895047 -0.18129729 1.4669324
-0.13656743 -0.18164794 1.4697697
-0.1341939 -0.18202539 1.4728237
-0.13183053 -0.18243216 1.476115
-0.12950552 -0.18290985 1.4799801
-0.12722269 -0.18346851 1.4845004
-0.12495961 -0.18408029 1.4894506
-0.12274078 -0.18478556 1.4951571
-0.12059456 -0.18563433 1.5020248
-0.11867488 -0.18687885 1.5120945
-0.28124699 -0.18166672 1.4916983
-0.27655989 -0.18036515 1.4810108
-0.27266699 -0.17956118 1.4744093
-0.26927155 -0.17907222 1.4703943
-0.26598653 -0.17864767 1.4669082
-0.26276913 -0.17826048 1.4637289
-0.25953487 -0.17785384 1.46039
-0.25641185 -0.17751589 1.457615
-0.25333759 -0.17720504 1.4550626
-0.25031406 -0.17692356 1.4527513
-0.24734972 -0.17667837 1.4507381
-0.24444468 -0.17647076 1.4490333
-0.24157353 -0.17628339 1.4474947
-0.23877446 -0.17614509 1.4463592
-0.23596373 -0.17599505 1.4451271
-0.23315588 -0.17584382 1.4438853
-0.23040769 -0.17573467 1.4429891
-0.22766677 -0.17562865 1.4421185
-0.2249313 -0.17552441 1.4412627
-0.22220592 -0.17542572 1.4404523
-0.21952134 -0.1753573 1.4398904
-0.21684662 -0.17529517 1.4393803
-0.21417536 -0.17523438 1.4388812
-0.21152209 -0.17518701 1.4384922
-0.20888667 -0.17515342 1.4382163
-0.20625497 -0.17512214 1.4379596
-0.20364299 -0.17510703 1.4378355
-0.20103954 -0.17509896 1.4377692
-0.19842938 -0.17508474 1.4376525
-0.19584081 -0.17508946 1.4376912
-0.19326094 -0.17510219 1.4377958
-0.19070853 -0.1751405 1.4381102
-0.18816227 -0.17518556 1.4384803
-0.18562764 -0.17524287 1.4389509
-0.18310457 -0.17531289 1.4395258
-0.18059723 -0.1754002 1.4402426
-0.17808738 -0.17548758 1.4409602
-0.17558099 -0.17558099 1.4417273
-0.17308538 -0.17568816 1.4426073
-0.17060186 -0.17581108 1.4436165
-0.16811487 -0.17593417 1.4446272
-0.16563348 -0.17606708 1.4457186
-0.16316222 -0.1762152 1.4469348
-0.16071787 -0.17639768 1.4484332
-0.15826795 -0.17657995 1.4499298
-0.15581276 -0.17676236 1.4514277
-0.15338412 -0.17698167 1.4532285
-0.15095615 -0.17720941 1.4550984
-0.14852312 -0.17743914 1.4569848
-0.14612551 -0.17772022 1.4592928
-0.14372531 -0.17800841 1.4616592
-0.14132358 -0.17830545 1.4640982
-0.13894175 -0.1786394 1.4668404
-0.13655886 -0.17898491 1.4696774
-0.13418332 -0.17935392 1.4727075
-0.13182011 -0.1797547 1.4759983
-0.12949206 -0.18022092 1.4798265
-0.12720573 -0.18076603 1.4843025
-0.12494378 -0.18137001 1.4892619
-0.12271977 -0.1820568 1.4949013
-0.12056983 -0.18288682 1.5017167
-0.11862656 -0.1840757 1.5114788
-0.28137144 -0.17905456 1.4923583
-0.27658686 -0.1777104 1.4811553
-0.27267575 -0.1769067 1.4744567
-0.26928273 -0.1764266 1.4704553
-0.26600289 -0.17601188 1.4669986
-0.26278889 -0.17563277 1.4638389
-0.25955048 -0.1752295 1.4604778
-0.25642723 -0.17489652 1.4577025
-0.25334704 -0.1745863 1.4551169
-0.25032285 -0.17430858 1.4528023
-0.24735059 -0.17406152 1.4507431
-0.24444872 -0.17385925 1.4490572
-0.24157338 -0.17367166 1.4474938
-0.23877428 -0.17353541 1.4463581
-0.23596725 -0.1733903 1.4451487
-0.23315938 -0.17324133 1.443907
-0.23040923 -0.17313236 1.4429989
-0.2276683 -0.17302792 1.4421283
-0.22493191 -0.17292453 1.4412667
-0.22220509 -0.17282619 1.440447
-0.21952058 -0.1727588 1.4398854
-0.21684743 -0.17269886 1.4393858
-0.21417618 -0.17263897 1.4388866
-0.2115216 -0.17259124 1.4384888
-0.20888682 -0.17255868 1.4382174
-0.20625515 -0.17252789 1.4379609
-0.20364411 -0.1725138 1.4378433
-0.20104064 -0.17250584 1.437777
-0.1984293 -0.17249082 1.4376519
-0.19584072 -0.17249545 1.4376905
-0.19326074 -0.17250791 1.4377943
-0.19070984 -0.17254701 1.4381201
-0.18816119 -0.17258923 1.438472
-0.18562657 -0.17264569 1.4389426
-0.18310285 -0.17271404 1.4395123
-0.18059552 -0.17280002 1.4402289
-0.17808571 -0.17288613 1.4409466
-0.17558062 -0.17297943 1.4417242
-0.17308041 -0.17308041 1.4425659
-0.17059696 -0.17320149 1.443575
-0.16811003 -0.17332274 1.4445856
-0.16563079 -0.17345586 1.4456952
-0.16315679 -0.17359883 1.4468867
-0.16071253 -0.17377858 1.4483849
-0.15826286 -0.17395836 1.4498832
-0.15580775 -0.17413807 1.4513811
-0.15337797 -0.17435272 1.4531702
-0.15095009 -0.17457707 1.45504
-0.1485161 -0.17480214 1.4569159
-0.14611821 -0.17507859 1.4592199
-0.14371812 -0.17536248 1.4615861
-0.1413139 -0.17565185 1.463998
-0.13893305 -0.17598186 1.4667485
-0.13655029 -0.17632222 1.4695852
-0.13417272 -0.17668289 1.4725913
-0.13180968 -0.17707767 1.4758816
-0.12947863 -0.17753255 1.4796729
-0.12718879 -0.1780643 1.4841049
-0.12492797 -0.17866042 1.4890734
-0.12269969 -0.17933032 1.4946567
-0.12054511 -0.18014045 1.5014088
-0.11858401 -0.18128359 1.5109366
-0.28149602 -0.17644009 1.493019
-0.27662039 -0.17505929 1.4813348
-0.27268448 -0.17425205 1.474504
-0.2692993 -0.17378429 1.4705459
-0.26601925 -0.17337573 1.4670887
-0.26280314 -0.17300107 1.4639183
-0.25957167 -0.17260858 1.4605972
-0.25644264 -0.17227684 1.45779
-0.25335646 -0.17196733 1.455171
-0.25033128 -0.17169318 1.4528512
-0.24735142 -0.17144464 1.450748
-0.24445274 -0.17124765 1.4490811
-0.24157323 -0.17105997 1.447493
-0.23877414 -0.17092575 1.4463573
-0.2359708 -0.1707855 1.4451704
-0.23316287 -0.17063874 1.4439286
-0.2304108 -0.17053002 1.4430087
-0.22766984 -0.17042713 1.442138
-0.22493252 -0.17032462 1.4412706
-0.22220427 -0.17022666 1.4404416
-0.21952143 -0.17016159 1.439891
-0.21684828 -0.17010255 1.4393914
-0.21417701 -0.17004356 1.4388922
-0.21152109 -0.16999549 1.4384854
-0.20888701 -0.16996397 1.4382187
-0.20625535 -0.16993365 1.4379622
-0.20364521 -0.16992053 1.4378512
-0.20104037 -0.16991155 1.4377751
-0.1984292 -0.1698969 1.4376512
-0.19584061 -0.16990146 1.4376898
-0.19326217 -0.16991507 1.4378049
-0.19071114 -0.16995347 1.4381299
-0.18816012 -0.16999292 1.4384638
-0.18562549 -0.17004853 1.4389343
-0.18310256 -0.17011656 1.43951
-0.1805938 -0.17019992 1.4402153
-0.17808403 -0.17028473 1.440933
-0.17558026 -0.17037788 1.4417212
-0.17307787 -0.1704752 1.4425447
-0.17059205 -0.17059205 1.4435335
-0.1681052 -0.17071147 1.4445441
-0.16562812 -0.17084475 1.4456718
-0.16315134 -0.17098261 1.4468384
-0.16070715 -0.17115965 1.4483365
-0.15825777 -0.17133692 1.4498365
-0.15580271 -0.17151392 1.4513342
-0.15337183 -0.17172401 1.453112
-0.15094405 -0.17194496 1.4549817
-0.14851004 -0.1721665 1.4568564
-0.14611094 -0.17243722 1.4591472
-0.14371094 -0.17271683 1.4615132
-0.14130421 -0.17299861 1.4638976
-0.13892435 -0.17332466 1.4666566
-0.13654171 -0.17365983 1.4694928
-0.13416187 -0.17401195 1.4724723
-0.13179821 -0.17439966 1.4757531
-0.12946518 -0.17484473 1.4795192
-0.12717186 -0.1753633 1.4839073
-0.12491215 -0.17595153 1.4888848
-0.12268102 -0.17660674 1.4944292
-0.12052039 -0.17739518 1.5011009
-0.11854731 -0.17850228 1.5104691
-0.28162071 -0.17382331 1.4936804
-0.2766757 -0.1724211 1.481631
-0.27269325 -0.17159721 1.4745513
-0.26931596 -0.17114165 1.4706367
-0.26603562 -0.17073928 1.4671791
-0.26281738 -0.17036906 1.4639977
-0.25959608 -0.16998932 1.4607345
-0.25645804 -0.16965686 1.4578776
-0.25336713 -0.16934901 1.4552324
-0.25033945 -0.16907743 1.4528985
-0.24735224 -0.16882773 1.4507529
-0.24445386 -0.16863395 1.4490877
-0.24157308 -0.16844825 1.447492
-0.238774 -0.1683161 1.4463564
-0.23597436 -0.16818061 1.4451922
-0.23316638 -0.1680361 1.4439504
-0.23041233 -0.16792764 1.4430183
-0.22767136 -0.16782631 1.4421476
-0.2249337 -0.16772513 1.4412781
-0.22220343 -0.16762716 1.4404362
-0.21952228 -0.16756435 1.4398965
-0.21684912 -0.1675062 1.4393969
-0.21417785 -0.16744813 1.4388978
-0.2115206 -0.16739973 1.438482
-0.20888722 -0.16736926 1.4382201
-0.20625554 -0.1673394 1.4379635
-0.20364633 -0.16732724 1.4378591
-0.20103888 -0.16731623 1.4377644
-0.19842909 -0.16730297 1.4376504
-0.19584054 -0.16730748 1.4376892
-0.19326402 -0.16732255 1.4378186
-0.19071245 -0.16735992 1.4381398
-0.18816033 -0.16739781 1.4384655
-0.18562803 -0.16745465 1.4389539
-0.1831051 -0.16752169 1.4395299
-0.18059209 -0.16759986 1.4402016
-0.17808232 -0.16768335 1.4409192
-0.17557989 -0.16777635 1.4417182
-0.17307751 -0.16787218 1.4425417
-0.17058717 -0.16798279 1.4434922
-0.16810037 -0.16810037 1.4445026
-0.16562544 -0.16823371 1.4456484
-0.16314685 -0.16836755 1.4467986
-0.16070178 -0.16854089 1.4482881
-0.1582526 -0.16871558 1.4497892
