# .PCD v0.7 - Point Cloud Data file format
VERSION 0.7
FIELDS x y z
SIZE 4 4 4
TYPE F F F
COUNT 1 1 1
WIDTH 1382
HEIGHT 1
VIEWPOINT 0 0 0 1 0 0 0
POINTS 1382
DATA ascii
0.13064778 -0.15986095 0.89952976
0.13254653 -0.16019426 0.90140533
0.1344932 -0.16057673 0.90355742
0.13647544 -0.16099198 0.90589404
0.13846855 -0.16141009 0.9082467
0.14051731 -0.16188252 0.910905
0.1426215 -0.16240714 0.91385704
0.14484744 -0.16305684 0.91751283
0.14724231 -0.16387986 0.92214394
0.14982745 -0.16489391 0.92784995
0.15272032 -0.16622046 0.93531436
-0.012906848 -0.16778901 0.9538241
-0.011052478 -0.16578718 0.94244426
-0.0092929332 -0.16473836 0.93648213
-0.007563171 -0.16386871 0.93153846
-0.0058538229 -0.16307078 0.92700249
-0.0041623102 -0.16233009 0.92279196
-0.002487696 -0.16170023 0.91921145
-0.00082624576 -0.16111793 0.91590118
0.00082368974 -0.1606195 0.91306782
0.0024649268 -0.16022025 0.91079819
0.004099783 -0.15989153 0.90892959
0.0057289856 -0.15959316 0.90723348
0.007352205 -0.15929778 0.90555423
0.008969415 -0.15900327 0.90388006
0.010581641 -0.15872462 0.90229607
0.012188226 -0.15844694 0.90071756
0.013789201 -0.15817025 0.89914465
0.01538473 -0.15789592 0.89758515
0.016977424 -0.15764751 0.89617306
0.018565362 -0.15740198 0.8947773
0.020148363 -0.15715723 0.89338595
0.021728368 -0.15692711 0.8920778
0.02330518 -0.15670724 0.89082795
0.02487929 -0.15649876 0.88964278
0.026450448 -0.1562981 0.88850212
0.028023338 -0.15613003 0.88754666
0.029594298 -0.15596995 0.88663667
0.031162042 -0.15581021 0.8857286
0.032731637 -0.15567486 0.88495922
0.034302779 -0.15555912 0.88430125
0.035871584 -0.15544353 0.88364416
0.037438642 -0.15533054 0.88300186
0.039003689 -0.15521877 0.88236642
0.040565453 -0.15510321 0.88170952
0.042127792 -0.15499848 0.88111418
0.043692846 -0.154911 0.8806169
0.045256138 -0.15482363 0.88012022
0.046817664 -0.15473635 0.87962407
0.048377983 -0.15465094 0.87913853
0.049936846 -0.15456642 0.87865812
0.051493999 -0.15448199 0.87817818
0.053057972 -0.15442245 0.87783968
0.054623533 -0.15437086 0.87754637
0.056188051 -0.15431929 0.87725323
0.057751518 -0.15426776 0.87696028
0.059313938 -0.15421624 0.87666744
0.060875326 -0.15416479 0.87637496
0.062441431 -0.15412758 0.87616342
0.064011075 -0.15410073 0.87601078
0.065580174 -0.15407391 0.87585831
0.067148723 -0.15404707 0.87570578
0.068724379 -0.1540374 0.87565076
0.070298053 -0.15402381 0.87557358
0.071869433 -0.15400593 0.87547189
0.073440447 -0.15398805 0.8753702
0.075021207 -0.15399091 0.87538648
0.076605976 -0.1540017 0.87544787
0.07819096 -0.1540125 0.8755092
0.079776168 -0.15402329 0.8755706
0.081372194 -0.15405415 0.87574601
0.082970947 -0.1540889 0.87594354
0.084570333 -0.15412351 0.8761403
0.086178407 -0.15417238 0.87641811
0.087786943 -0.1542203 0.87669051
0.089406401 -0.15428539 0.87706047
0.091029502 -0.15435438 0.87745267
0.092654079 -0.15442346 0.87784541
0.094279021 -0.15449084 0.87822843
0.095919706 -0.15458135 0.87874293
0.097565271 -0.15467665 0.87928468
0.099212848 -0.15477204 0.87982696
0.10086246 -0.15486754 0.8803699
0.1025141 -0.15496318 0.8809135
0.10417213 -0.15506539 0.88149452
0.10585634 -0.15520291 0.8822763
0.10754354 -0.15534067 0.88305944
0.10923374 -0.15547867 0.88384396
0.11092693 -0.15561692 0.88462985
0.11264849 -0.15579046 0.88561636
0.1143836 -0.15597764 0.88668036
0.11612289 -0.15616527 0.88774699
0.11786635 -0.15635332 0.88881606
0.11963144 -0.15656464 0.89001727
0.12142585 -0.15680821 0.89140195
0.12322584 -0.15705255 0.89279085
0.12503146 -0.15729764 0.89418417
0.12687039 -0.15757789 0.89577723
0.12875336 -0.15790507 0.89763719
0.13064416 -0.1582336 0.89950478
0.13254283 -0.15856352 0.90138024
0.13448642 -0.1589385 0.90351188
0.13646854 -0.1593495 0.90584826
0.13846292 -0.1597649 0.90820968
0.14050838 -0.16022885 0.91084713
0.1426141 -0.16075 0.91380966
0.14483693 -0.16138974 0.91744632
0.14722495 -0.16219698 0.92203522
0.14981152 -0.16320249 0.92775124
0.15269125 -0.16450162 0.93513638
-0.012910875 -0.16611992 0.95412171
-0.011052292 -0.16408403 0.94242841
-0.0092933886 -0.16305673 0.93652803
-0.0075630718 -0.16218588 0.93152624
-0.0058539612 -0.16140208 0.92702442
-0.0041624326 -0.16066991 0.92281914
-0.0024877863 -0.16004759 0.91924483
-0.00082628062 -0.15947215 0.91593981
0.00082371337 -0.15897667 0.91309398
0.0024649021 -0.15857537 0.91078907
0.0040997737 -0.15825126 0.9089275
0.0057289526 -0.15795541 0.90722823
0.0073522343 -0.15766458 0.90555787
0.0089694317 -0.15737276 0.90388173
0.010581661 -0.15709697 0.90229774
0.012188249 -0.15682213 0.90071923
0.013789275 -0.15654883 0.89914942
0.01538494 -0.15627861 0.89759743
0.016977655 -0.15603273 0.89618522
0.018565645 -0.15578997 0.89479095
0.020148668 -0.15554772 0.89339954
0.021728421 -0.15531798 0.89207995
0.023305163 -0.15509988 0.8908273
0.024879258 -0.15489344 0.88964164
0.026450519 -0.15469547 0.88850451
0.028023127 -0.15452753 0.88753998
0.029594077 -0.1543691 0.88663006
0.031161809 -0.154211 0.88572198
0.032731675 -0.15407838 0.88496023
0.034302596 -0.15396282 0.88429654
0.035871394 -0.15384842 0.88363945
0.037437867 -0.15373422 0.88298357
0.03900288 -0.15362358 0.88234812
0.040565137 -0.15351121 0.88170266
0.042127352 -0.15340716 0.88110501
0.043692395 -0.15332058 0.88060778
0.045255668 -0.15323411 0.8801111
0.046817549 -0.15314892 0.87962186
0.048378117 -0.15306519 0.87914091
0.04993698 -0.15298155 0.8786605
0.05149414 -0.15289798 0.87818056
0.053057771 -0.15283807 0.87783641
0.054623328 -0.152787 0.87754309
0.056187838 -0.15273596 0.87724996
0.057751298 -0.15268494 0.87695694
0.059313718 -0.15263397 0.87666416
0.060875095 -0.15258303 0.87637162
0.062441602 -0.15254721 0.87616587
0.064010598 -0.15251908 0.87600428
0.06557969 -0.15249252 0.87585181
0.067148224 -0.15246597 0.87569928
0.068724364 -0.15245751 0.87565064
0.07029704 -0.1524419 0.875561
0.071868405 -0.15242419 0.87545931
0.073439397 -0.15240648 0.87535763
0.075021915 -0.15241294 0.8753947
0.076606698 -0.15242364 0.87545609
0.07819169 -0.1524343 0.87551743
0.07977692 -0.152445 0.87557882
0.081373021 -0.15247566 0.87575489
0.082971662 -0.15250982 0.87595111
0.084571011 -0.15254398 0.87614727
0.08618056 -0.15259494 0.87643999
0.087789133 -0.15264237 0.87671244
0.089406334 -0.15270285 0.87705982
0.091029443 -0.15277115 0.87745208
0.092654005 -0.15283951 0.87784475
0.094280027 -0.15290795 0.87823778
0.095919743 -0.15299596 0.87874329
0.097565003 -0.15308981 0.8792823
0.099212296 -0.15318379 0.87982208
0.10086159 -0.15327786 0.88036239
0.10251293 -0.15337205 0.88090342
0.10416999 -0.15347183 0.88147646
0.10585595 -0.15361051 0.88227302
0.10754314 -0.15374686 0.88305616
0.10923333 -0.15388346 0.88384068
0.11092653 -0.15402029 0.88462663
0.11264651 -0.1541899 0.88560075
0.11438157 -0.15437514 0.88666469
0.11612084 -0.15456085 0.88773131
0.11786427 -0.15474698 0.88880038
0.11962923 -0.15495598 0.89000082
0.1214236 -0.15519705 0.89138544
0.12322355 -0.15543886 0.89277428
0.12502915 -0.15568145 0.8941676
0.12686691 -0.1559574 0.89575255
0.1287498 -0.15628122 0.89761239
0.13064054 -0.15660636 0.89947993
0.13253932 -0.15693307 0.90135634
0.13447964 -0.15730043 0.90346634
0.13646165 -0.15770717 0.90580249
0.13845728 -0.15811984 0.90817273
0.14049947 -0.15857543 0.91078937
0.14260669 -0.15909302 0.91376221
0.14482686 -0.15972334 0.91738248
0.14721066 -0.16051783 0.92194569
0.14979511 -0.16151093 0.92764968
0.15267426 -0.1627963 0.93503231
-0.012914905 -0.1644498 0.95441955
-0.011052806 -0.16239122 0.94247222
-0.0092938449 -0.16137494 0.93657404
-0.0075629726 -0.16050309 0.93151402
-0.0058541005 -0.15973331 0.92704648
-0.0041625551 -0.15900961 0.92284626
-0.0024878765 -0.1583948 0.91927814
-0.00082631537 -0.15782623 0.91597831
0.00082373741 -0.15733384 0.91312063
0.0024648777 -0.15693055 0.91078001
0.0040997644 -0.156611 0.90892541
0.00572892 -0.15631767 0.90722305
0.0073522194 -0.15603043 0.90555602
0.0089694476 -0.15574223 0.90388334
0.010581681 -0.15546931 0.9022994
0.012188272 -0.15519732 0.90072089
0.013789426 -0.15492825 0.89915925
0.015385211 -0.15466185 0.89761317
0.016977875 -0.1544178 0.89619678
0.018565916 -0.15417781 0.89480394
0.020148974 -0.15393816 0.89341307
0.021728473 -0.15370882 0.89208204
0.023305142 -0.1534925 0.89082652
0.024879228 -0.15328814 0.88964057
0.026450591 -0.15309282 0.88850695
0.028022915 -0.15292504 0.88753325
0.02959385 -0.15276825 0.88662326
0.031161571 -0.15261181 0.88571525
0.032731768 -0.15248214 0.88496274
0.034302406 -0.1523665 0.88429165
0.035871193 -0.15225329 0.88363457
0.037437659 -0.15214027 0.88297862
0.039002076 -0.1520285 0.88232994
0.040564802 -0.15191916 0.88169533
0.042126916 -0.15181586 0.88109589
0.043691937 -0.15173018 0.8805986
0.045255397 -0.15164527 0.88010579
0.046817675 -0.1515623 0.87962425
0.048378248 -0.15147942 0.8791433
0.049937118 -0.15139665 0.87866288
0.051494278 -0.15131396 0.87818295
0.053057566 -0.15125367 0.87783301
0.05462312 -0.15120313 0.87753969
0.056187622 -0.15115261 0.87724656
0.057751074 -0.15110213 0.87695354
0.059313487 -0.15105169 0.87666076
0.060874861 -0.15100127 0.87636822
0.062441938 -0.15096723 0.87617058
0.064010121 -0.15093745 0.87599778
0.065579206 -0.15091118 0.87584531
0.067147732 -0.1508849 0.87569278
0.068724327 -0.15087755 0.87565017
0.070296034 -0.15086003 0.87554848
0.071867377 -0.15084252 0.8754468
0.073438905 -0.15082614 0.87535179
0.075021401 -0.1508325 0.87538868
0.076606423 -0.15084358 0.87545294
0.078191668 -0.15085463 0.87551713
0.079777159 -0.15086572 0.8755815
0.081373669 -0.1508968 0.87576187
0.082972318 -0.1509306 0.87595803
0.084571674 -0.15096439 0.87615418
0.086182706 -0.1510174 0.8764618
0.087791324 -0.15106435 0.87673426
0.089406267 -0.15112032 0.87705916
0.091029376 -0.15118791 0.87745142
0.092653945 -0.15125558 0.87784415
0.094280086 -0.1513235 0.87823832
0.095918104 -0.15140791 0.87872827
0.097563334 -0.15150079 0.87926728
0.099210598 -0.15159379 0.879807
0.10085987 -0.15168689 0.88034737
0.10251117 -0.15178011 0.88088834
0.10416808 -0.15187865 0.88146025
0.10585511 -0.1520175 0.8822661
0.10754275 -0.15215307 0.88305295
0.10923292 -0.15228824 0.8838374
0.11092612 -0.15242366 0.88462335
0.11264452 -0.15258938 0.88558513
0.11437956 -0.15277269 0.88664907
0.11611878 -0.15295647 0.88771558
0.11786209 -0.15314053 0.88878387
0.11962701 -0.15334737 0.88998431
0.12142134 -0.15358594 0.89136887
0.12322126 -0.15382524 0.89275771
0.12502681 -0.1540653 0.89415091
0.12686341 -0.154337 0.89572787
0.12874626 -0.15465745 0.8975876
0.13063693 -0.15497921 0.89945501
0.13253684 -0.15530391 0.90133947
0.13447286 -0.15566252 0.90342081
0.13645475 -0.15606502 0.90575671
0.13845164 -0.15647493 0.90813577
0.14049055 -0.15692219 0.91073155
0.14259928 -0.15743621 0.91371471
0.14481679 -0.15805718 0.9173187
0.14719893 -0.15884177 0.92187226
0.14977734 -0.15981828 0.92753959
0.15266344 -0.16109788 0.93496603
-0.012919069 -0.16278027 0.95472729
-0.011055862 -0.16073522 0.94273281
-0.0092943013 -0.159693 0.93662006
-0.0075628744 -0.15882036 0.93150192
-0.0058542392 -0.15806445 0.92706841
-0.0041626776 -0.15734921 0.92287344
-0.002487967 -0.15674192 0.91931158
-0.00082635012 -0.15618017 0.91601688
0.00082376145 -0.15569091 0.91314727
0.0024648726 -0.15528697 0.91077811
0.0040997546 -0.15497072 0.90892327
0.0057288869 -0.15467995 0.90721786
0.0073521775 -0.15439573 0.90555084
0.0089694643 -0.1541117 0.90388501
0.0105817 -0.15384164 0.90230107
0.01218838 -0.15357359 0.90072888
0.013789575 -0.15330762 0.89916897
0.015385479 -0.15304503 0.89762884
0.016978094 -0.15280285 0.89620847
0.018566156 -0.15256537 0.89481556
0.020149281 -0.15232857 0.89342666
0.021728525 -0.15209968 0.89208424
0.023305126 -0.15188512 0.89082587
0.024879197 -0.15168284 0.88963944
0.026450662 -0.15149015 0.88850927
0.028022705 -0.1513226 0.88752657
0.02959363 -0.15116745 0.88661665
0.031161336 -0.15101263 0.88570857
0.032731865 -0.15088591 0.88496536
0.03430222 -0.15077023 0.88428682
0.035870999 -0.15065819 0.88362974
0.03743745 -0.15054634 0.88297373
0.039001588 -0.1504347 0.88231891
0.040563963 -0.15032528 0.88167715
0.042126477 -0.15022461 0.88108671
0.04369152 -0.15013996 0.8805902
0.045255519 -0.15005778 0.88010824
0.046817802 -0.14997567 0.87962663
0.048378382 -0.14989367 0.87914574
0.049937256 -0.14981176 0.87866533
0.05149442 -0.14972992 0.87818533
0.053057361 -0.14966927 0.87782961
0.054622907 -0.14961927 0.8775363
0.056187402 -0.14956929 0.87724316
0.057750851 -0.14951932 0.87695014
0.059313256 -0.14946941 0.87665737
0.06087463 -0.14941955 0.87636489
0.06244228 -0.14938723 0.87617534
0.064009644 -0.14935584 0.87599128
0.065578714 -0.14932984 0.87583882
0.067147531 -0.14930451 0.87569022
0.068723343 -0.14929554 0.87563759
0.070295021 -0.14927819 0.87553585
0.071866401 -0.14926098 0.87543494
0.073439039 -0.14924708 0.87535334
0.075020835 -0.14925197 0.87538207
0.076605842 -0.14926292 0.87544632
0.078191079 -0.14927389 0.87551057
0.079776794 -0.14928529 0.87557745
0.081374303 -0.14931789 0.87576872
0.082972966 -0.14935134 0.87596488
0.084572338 -0.14938478 0.87616104
0.086182319 -0.1494354 0.87645787
0.087793499 -0.14948623 0.87675601
0.089406192 -0.14953779 0.87705845
0.091029294 -0.14960466 0.87745064
0.092653863 -0.14967163 0.87784338
0.094280563 -0.14973973 0.87824279
0.095916472 -0.14981994 0.87871331
0.097561672 -0.14991184 0.87925225
0.099208899 -0.15000385 0.87979198
0.10085814 -0.15009598 0.88033229
0.10250942 -0.15018822 0.88087326
0.10416732 -0.1502872 0.88145381
0.10585196 -0.1504212 0.88223976
0.10754237 -0.15055931 0.88304979
0.10923254 -0.15069306 0.88383424
0.11092573 -0.15082707 0.88462019
0.11264253 -0.15098894 0.88556957
0.11437754 -0.15117031 0.8866334
0.11611672 -0.15135214 0.88769978
0.1178599 -0.15153416 0.88876736
0.1196248 -0.15173884 0.88996786
0.1214191 -0.1519749 0.89135242
0.12321898 -0.15221168 0.89274114
0.1250245 -0.15244922 0.89413434
0.12685992 -0.15271671 0.8957032
0.12874271 -0.15303378 0.89756286
0.13063331 -0.15335216 0.89943016
0.13253437 -0.15367483 0.90132266
0.13446608 -0.15402479 0.90337527
0.13644785 -0.15442301 0.90571094
0.138446 -0.15483016 0.90809882
0.14048164 -0.15526919 0.9106738
0.14259189 -0.15577959 0.91366738
0.1448067 -0.15639125 0.91725481
0.14718719 -0.15716597 0.92179871
0.14975956 -0.15812601 0.9274295
0.15265264 -0.15939972 0.93489987
-0.012920894 -0.16108048 0.95486212
-0.011058919 -0.1590783 0.94299352
-0.0092947586 -0.15801089 0.93666607
-0.0075627752 -0.15713766 0.93148971
-0.005854378 -0.15639552 0.92709041
-0.0041628005 -0.15568873 0.92290068
-0.0024880574 -0.1550889 0.91934496
-0.00082638493 -0.15453398 0.91605544
0.00082378538 -0.15404786 0.91317379
0.0024648972 -0.15364526 0.91078722
0.0040997453 -0.15333046 0.90892118
0.0057288543 -0.15304226 0.90721267
0.0073521351 -0.15276103 0.90554565
0.0089694802 -0.15248117 0.90388668
0.010581736 -0.15221418 0.90230405
0.012188512 -0.15195012 0.90073866
0.013789724 -0.15168695 0.89917868
0.015385749 -0.15142816 0.89764458
0.016978318 -0.15118788 0.89622027
0.0185664 -0.15095291 0.89482731
0.020149551 -0.15071864 0.89343864
0.021728514 -0.15049008 0.89208376
0.023305109 -0.15027776 0.89082521
0.024879169 -0.15007757 0.88963842
0.026450733 -0.14988749 0.88851166
0.028022595 -0.14972071 0.88752311
0.029593406 -0.14956668 0.88660997
0.031161103 -0.1494135 0.88570195
0.032731961 -0.14928968 0.88496798
0.034302037 -0.14917397 0.88428205
0.035870805 -0.14906313 0.88362503
0.037437253 -0.14895247 0.88296902
0.039001379 -0.14884201 0.88231421
0.040563181 -0.14873166 0.88166016
0.042126037 -0.14863338 0.88107747
0.043691639 -0.14855157 0.88059258
0.045255642 -0.14847027 0.88011062
0.046817932 -0.14838904 0.87962908
0.048378512 -0.1483079 0.87914813
0.04993739 -0.14822686 0.87866771
0.051494557 -0.14814588 0.87818772
0.053057157 -0.14808489 0.87782621
0.054622695 -0.14803542 0.8775329
0.056187186 -0.14798597 0.87723976
0.057750627 -0.14793654 0.87694675
0.059313029 -0.14788716 0.87665397
0.060874917 -0.14783908 0.87636906
0.062442619 -0.14780721 0.87618011
0.064009637 -0.14777534 0.87599117
0.06557823 -0.14774854 0.87583232
0.067147531 -0.14772455 0.87569016
0.068722352 -0.14771356 0.87562495
0.070294008 -0.14769641 0.87552327
0.07186605 -0.14768077 0.87543064
0.073439181 -0.14766803 0.87535506
0.075020269 -0.14767148 0.87537551
0.076605268 -0.14768232 0.87543976
0.078190498 -0.14769316 0.87550402
0.07977654 -0.14770508 0.87557465
0.081374444 -0.14773807 0.87577027
0.082973622 -0.14777207 0.87597179
0.084573008 -0.14780515 0.87616795
0.086181566 -0.14785278 0.87645024
0.087795697 -0.14790806 0.87677795
0.089406125 -0.14795527 0.87705779
0.091029227 -0.14802144 0.87745005
0.092653796 -0.1480877 0.87784278
0.094281062 -0.14815596 0.87824744
0.095914818 -0.148232 0.87869817
0.097559996 -0.14832292 0.87923717
0.099207193 -0.14841396 0.87977684
0.10085641 -0.14850511 0.88031715
0.10250765 -0.14859636 0.88085806
0.10416655 -0.14869577 0.88144732
0.10584879 -0.14882499 0.88221335
0.10754003 -0.14896286 0.88303059
0.10923214 -0.14909789 0.88383102
0.11092532 -0.14923045 0.88461691
0.11264055 -0.14938854 0.88555396
0.11437552 -0.14956799 0.88661778
0.11611456 -0.14974774 0.88768327
0.1178577 -0.14992782 0.88875079
0.11962335 -0.15013131 0.88995707
0.12141685 -0.15036392 0.8913359
0.1232167 -0.15059818 0.89272463
0.12502217 -0.1508332 0.89411777
0.1268564 -0.15109648 0.8956784
0.12873913 -0.15141018 0.89753795
0.13062969 -0.15172516 0.89940518
0.1325319 -0.15204579 0.90130579
0.1344593 -0.15238722 0.90332973
0.13644096 -0.1527812 0.90566522
0.13844037 -0.15318549 0.9080618
0.14047416 -0.15361793 0.91062528
0.14258449 -0.15412313 0.91361994
0.14479664 -0.15472555 0.91719103
0.14717545 -0.15549044 0.92172521
0.14974451 -0.15643699 0.92733628
0.15264182 -0.15770178 0.93483365
-0.012922122 -0.15937284 0.9549529
-0.011058993 -0.15737797 0.94299978
-0.009295214 -0.15632859 0.93671197
-0.007562676 -0.15545501 0.93147749
-0.0058545163 -0.15472651 0.92711234
-0.0041628941 -0.15402707 0.92292142
-0.0024881475 -0.15343577 0.91937828
-0.00082641974 -0.15288764 0.91609401
0.00082380942 -0.15240474 0.91320044
0.0024649214 -0.1520035 0.91079623
0.0040997355 -0.15169021 0.9089191
0.0057288208 -0.15140454 0.90720737
0.0073520928 -0.15112635 0.90554041
0.0089694969 -0.15085064 0.90388834
0.010581851 -0.15058789 0.90231395
0.012188646 -0.15032662 0.90074855
0.013789875 -0.15006627 0.89918852
0.015386018 -0.14981122 0.89766026
0.01697854 -0.14957285 0.89623195
0.018566642 -0.14934038 0.89483899
0.020149812 -0.14910862 0.89345026
0.021728598 -0.14888112 0.89208716
0.023305088 -0.14867039 0.89082444
0.024879107 -0.1484721 0.88963628
0.026450805 -0.14828481 0.8885141
0.028022671 -0.14811984 0.88752556
0.029593183 -0.14796591 0.88660324
0.031160867 -0.14781436 0.88569522
0.032732058 -0.14769344 0.88497061
0.034301847 -0.14757772 0.88427722
0.035870608 -0.14746806 0.88362014
0.037437048 -0.14735858 0.88296419
0.039001163 -0.14724928 0.88230926
0.040562954 -0.14714013 0.88165522
0.042126045 -0.14704373 0.88107765
0.043691762 -0.14696321 0.88059509
0.045255773 -0.14688277 0.88011312
0.046818059 -0.1468024 0.87963152
0.04837865 -0.14672214 0.87915063
0.049937528 -0.14664195 0.87867016
0.051494706 -0.14656186 0.87819022
0.053056955 -0.14650054 0.87782288
0.054622486 -0.14645159 0.87752956
0.056186978 -0.14640269 0.87723649
0.057750411 -0.14635378 0.87694347
0.059312806 -0.14630492 0.87665069
0.060875256 -0.14625874 0.87637395
0.062442962 -0.1462272 0.87618494
0.064009994 -0.14619567 0.87599605
0.065577745 -0.14616726 0.87582582
0.067147531 -0.14614461 0.87569016
0.068721369 -0.14613165 0.87561244
0.070293248 -0.14611518 0.87551379
0.071865685 -0.14610057 0.87542623
0.07343933 -0.14608899 0.87535685
0.075019695 -0.14609098 0.87536883
0.076604679 -0.14610171 0.87543309
0.078189902 -0.14611244 0.87549734
0.079776272 -0.14612485 0.87557173
0.081372716 -0.14615488 0.87575167
0.082974285 -0.14619279 0.87597877
0.084573679 -0.14622553 0.87617493
0.086180821 -0.1462702 0.87644267
0.087797008 -0.14632834 0.87679106
0.089407615 -0.1463753 0.87707239
0.09102916 -0.14643821 0.87744939
0.092653729 -0.14650376 0.87784213
0.094281547 -0.14657214 0.87825191
0.095913187 -0.14664413 0.87868321
0.097558334 -0.14673407 0.87922215
0.099205501 -0.14682414 0.87976182
0.10085468 -0.1469143 0.88030207
0.10250589 -0.14700457 0.88084298
0.10416579 -0.14710435 0.88144082
0.10584563 -0.14722888 0.88218701
0.10753682 -0.14736526 0.88300419
0.10923114 -0.1475019 0.88382292
0.1109249 -0.14763387 0.88461363
0.11263856 -0.14778818 0.88553834
0.11437347 -0.14796567 0.88660181
0.1161124 -0.14814341 0.88766682
0.11785552 -0.14832157 0.88873434
0.11962199 -0.14852396 0.889947
0.12141461 -0.148753 0.89131945
0.12321442 -0.14898475 0.89270806
0.12501986 -0.14921725 0.8941012
0.12685291 -0.14947636 0.89565378
0.12873559 -0.14978668 0.89751321
0.13062607 -0.15009828 0.89938027
0.13252941 -0.15041682 0.90128893
0.13445254 -0.1507498 0.90328419
0.13643406 -0.15113954 0.90561944
0.13843475 -0.15154099 0.90802497
0.14046843 -0.15196878 0.9105882
0.14257708 -0.15246683 0.91357249
0.14478855 -0.15306218 0.91713977
0.1471637 -0.15381517 0.92165166
0.14973292 -0.1547519 0.92726445
0.152631 -0.15600406 0.93476737
-0.012923351 -0.15766488 0.95504367
-0.011058924 -0.15567562 0.94299394
-0.0092956703 -0.15464616 0.93675798
-0.0075625777 -0.15377241 0.93146539
-0.0058546555 -0.15305743 0.92713439
-0.0041630659 -0.1523682 0.92295951
-0.002488238 -0.15178253 0.91941178
-0.00082645455 -0.15124118 0.91613263
0.0008238334 -0.15076151 0.91322708
0.0024650199 -0.15036622 0.91083258
0.0040997262 -0.15004997 0.90891695
0.0057287882 -0.14976689 0.90720218
0.0073520504 -0.1494917 0.90553522
0.0089695603 -0.14922085 0.90389466
0.010581966 -0.14896153 0.90232378
0.012188778 -0.1487031 0.90075833
0.013790024 -0.14844555 0.89919823
0.015386287 -0.14819424 0.89767599
0.016978761 -0.14795777 0.89624363
0.018566882 -0.1477278 0.89485061
0.020150075 -0.14749855 0.89346188
0.021728868 -0.14727344 0.89209831
0.023305083 -0.14706311 0.89082426
0.024879022 -0.14686649 0.88963318
0.026450874 -0.14668211 0.88851643
0.028022746 -0.14651893 0.88752788
0.029592959 -0.14636518 0.88659656
0.03116082 -0.14621615 0.88569391
0.032732155 -0.14609718 0.88497323
0.034301661 -0.14598149 0.8842724
0.035870414 -0.14587301 0.88361531
0.037436843 -0.14576472 0.88295937
0.039000947 -0.1456566 0.88230443
0.040562734 -0.14554863 0.88165039
0.042126156 -0.14545447 0.88108003
0.043691885 -0.14537482 0.88059753
0.045255896 -0.14529525 0.88011551
0.046818189 -0.14521575 0.87963396
0.04837878 -0.14513634 0.87915301
0.049937669 -0.14505704 0.8786726
0.051494844 -0.14497779 0.8781926
0.05305675 -0.14491619 0.87781948
0.054622278 -0.14486778 0.87752616
0.056186758 -0.14481939 0.87723309
0.057750188 -0.14477102 0.87694007
0.059312575 -0.14472269 0.87664729
0.060875587 -0.14467834 0.87637872
0.062443301 -0.14464715 0.87618971
0.064010337 -0.14461595 0.87600076
0.065577269 -0.14458601 0.87581944
0.067147516 -0.14456466 0.87569004
0.068720378 -0.14454976 0.8755998
0.070292898 -0.14453483 0.87550938
0.071865328 -0.14452039 0.87542188
0.073439479 -0.14450994 0.87535864
0.075019136 -0.14451055 0.87536228
0.076604106 -0.14452115 0.87542653
0.078189306 -0.14453176 0.87549073
0.079776011 -0.14454465 0.87556887
0.081371009 -0.1445718 0.87573326
0.082974933 -0.14461346 0.87598562
0.084574342 -0.14464584 0.87618178
0.086180076 -0.14468765 0.87643504
0.087796241 -0.14474516 0.87678343
0.089409851 -0.14479649 0.87709433
0.091029093 -0.14485499 0.87744874
0.092653662 -0.14491983 0.87784147
0.094282039 -0.14498834 0.8782565
0.095912024 -0.14505702 0.87867254
0.097556651 -0.14514527 0.87920702
0.099203795 -0.14523435 0.87974668
0.10085295 -0.14532354 0.88028693
0.10250413 -0.14541283 0.88082784
0.10416501 -0.14551295 0.88143426
0.10584247 -0.14563286 0.88216066
0.1075336 -0.14576778 0.88297784
0.10922787 -0.14590292 0.88379645
0.11092449 -0.14603728 0.88461035
0.11263658 -0.1461879 0.88552272
0.11437134 -0.14636332 0.8865853
0.11611024 -0.14653914 0.88765031
0.11785332 -0.14671536 0.88871777
0.11962063 -0.14691661 0.88993686
0.12141236 -0.14714213 0.89130288
0.12321213 -0.14737137 0.89269149
0.12501752 -0.14760134 0.89408451
0.12684941 -0.14785632 0.89562911
0.12873203 -0.14816327 0.89748842
0.13062246 -0.14847149 0.89935541
0.13252693 -0.14878792 0.90127212
0.13444725 -0.14911422 0.90324873
0.13642718 -0.14949805 0.90557367
0.13842912 -0.14989662 0.90798801
0.1404627 -0.15031974 0.91055101
0.14256969 -0.15081072 0.9135251
0.14478093 -0.15139949 0.91709155
0.14715198 -0.15214019 0.92157823
0.14972132 -0.15306705 0.92719269
0.1526202 -0.15430661 0.9347012
-0.012925725 -0.15597042 0.95521921
-0.011059819 -0.15398671 0.94307023
-0.0092955371 -0.15295383 0.93674451
-0.007562479 -0.15208986 0.93145323
-0.0058547417 -0.1513869 0.92714804
-0.0041632941 -0.15071125 0.92301011
-0.0024883284 -0.15012914 0.9194451
-0.00082648935 -0.14959458 0.91617119
0.00082385738 -0.14911819 0.91325361
0.0024651214 -0.148729 0.91087008
0.0040997164 -0.14840974 0.90891486
0.0057287551 -0.14812924 0.907197
0.0073520085 -0.14785706 0.90553004
0.0089696571 -0.14759164 0.9039045
0.010582081 -0.14733513 0.90233356
0.01218891 -0.14707951 0.90076804
0.013790173 -0.14682478 0.89920801
0.015386556 -0.14657719 0.89769167
0.016978983 -0.14634266 0.89625531
0.018567126 -0.1461152 0.89486229
0.020150336 -0.14588843 0.89347345
0.021729138 -0.14566571 0.89210939
0.02330537 -0.14545766 0.89083523
0.024878936 -0.14526089 0.88963014
0.026450947 -0.14507943 0.88851887
0.028022822 -0.14491802 0.88753033
0.029592734 -0.14476445 0.88658983
0.03116091 -0.14461857 0.88569641
0.032732248 -0.1445009 0.88497573
0.034301475 -0.14438528 0.88426763
0.035870221 -0.144278 0.88361061
0.037436638 -0.1441709 0.8829546
0.039000738 -0.14406395 0.88229966
0.040562518 -0.14395717 0.88164568
0.042126276 -0.1438652 0.88108248
0.043692004 -0.14378642 0.88059992
0.045256019 -0.14370771 0.88011789
0.046818316 -0.14362907 0.87963635
0.048378915 -0.14355054 0.8791554
0.049937803 -0.14347211 0.87867498
0.051494986 -0.14339373 0.87819499
0.053056546 -0.14333186 0.87781608
0.054622065 -0.14328396 0.87752277
0.056186542 -0.14323612 0.87722969
0.057749964 -0.14318827 0.87693667
0.059312347 -0.14314047 0.8766439
0.060875915 -0.14309794 0.87638342
0.062443644 -0.14306708 0.87619448
0.064010687 -0.14303623 0.87600553
0.065577067 -0.1430054 0.87581676
0.067147434 -0.14298454 0.87568897
0.068719804 -0.14296879 0.87559247
0.070292547 -0.1429545 0.87550503
0.07186497 -0.14294021 0.87541747
0.073439628 -0.14293088 0.87536037
0.075018577 -0.14293012 0.87535572
0.076603532 -0.14294061 0.87541991
0.078188896 -0.14295141 0.87548608
0.079775743 -0.14296445 0.87556595
0.081369281 -0.14298874 0.87571466
0.08297392 -0.14303124 0.87597495
0.084575012 -0.14306615 0.87618876
0.086179331 -0.14310512 0.87642747
0.087795489 -0.14316201 0.87677586
0.089412078 -0.14321758 0.87711614
0.091029026 -0.14327177 0.87744808
0.092654079 -0.14333665 0.87784541
0.094282515 -0.1434045 0.87826097
0.095912509 -0.14347243 0.87867701
0.097554982 -0.14355652 0.87919199
0.099202096 -0.14364465 0.87973166
0.10085122 -0.14373285 0.88027185
0.10250238 -0.14382116 0.88081276
0.10416424 -0.14392158 0.88142776
0.1058393 -0.14403695 0.88213432
0.10753039 -0.14417037 0.88295144
0.1092246 -0.14430402 0.88376999
0.11092196 -0.14443795 0.88459021
0.11263453 -0.14458759 0.88550663
0.11436922 -0.14476104 0.8865689
0.11610809 -0.14493492 0.88763386
0.11785113 -0.14510922 0.88870126
0.11961929 -0.14530933 0.88992685
0.12141011 -0.14553133 0.89128637
0.12320984 -0.14575805 0.89267492
0.12501521 -0.1459855 0.89406794
0.12684591 -0.14623636 0.89560431
0.12872846 -0.14653994 0.89746356
0.13061883 -0.14684477 0.89933044
0.13252446 -0.14715905 0.90125525
0.13444473 -0.1474818 0.9032318
0.13642029 -0.14785673 0.90552801
0.13842349 -0.14825237 0.90795106
0.14045697 -0.14867084 0.91051388
0.14256229 -0.14915477 0.91347766
0.14477332 -0.14973697 0.91704333
0.14714023 -0.15046544 0.92150474
0.14970973 -0.15138246 0.92712086
0.15260938 -0.15260938 0.93463498
-0.012946911 -0.15449981 0.95678484
-0.011061 -0.15230146 0.94317091
-0.0092951069 -0.15125674 0.93670118
-0.0075625209 -0.15041013 0.93145835
-0.0058547887 -0.1497153 0.92715544
-0.0041635223 -0.1490541 0.92306066
-0.0024884187 -0.14847565 0.91947848
-0.00082652416 -0.14794783 0.91620982
0.0008238905 -0.14747639 0.91329032
0.002465223 -0.14709163 0.91090757
0.0040997076 -0.14676952 0.90891284
0.0057287225 -0.14649162 0.90719181
0.0073520485 -0.14622408 0.90553498
0.0089697558 -0.1459624 0.90391445
0.010582197 -0.14570871 0.90234345
0.012189044 -0.14545591 0.90077794
0.013790323 -0.14520399 0.89921784
0.015386824 -0.14496008 0.89770728
0.016979204 -0.14472751 0.89626706
0.018567368 -0.14450257 0.89487404
0.0201506 -0.1442783 0.89348519
0.021729479 -0.14405841 0.8921234
0.02330566 -0.14385217 0.89084631
0.024878852 -0.14365532 0.88962716
0.026451018 -0.14347674 0.88852125
0.028022896 -0.14331709 0.88753265
0.029592512 -0.14316377 0.88658315
0.031161001 -0.143021 0.88569903
0.032732345 -0.14290464 0.88497835
0.034301288 -0.14278908 0.8842628
0.035870023 -0.14268298 0.88360572
0.037436433 -0.14257707 0.88294977
0.039000522 -0.1424713 0.88229483
0.040562294 -0.14236569 0.88164085
0.042126492 -0.14227626 0.88108701
0.043692123 -0.142198 0.8806023
0.045256142 -0.14212017 0.88012034
0.046818446 -0.1420424 0.87963873
0.048379045 -0.14196473 0.87915778
0.049937937 -0.14188716 0.87867737
0.051495124 -0.14180966 0.87819737
0.053056341 -0.14174753 0.87781268
0.054621853 -0.14170016 0.87751937
0.056186322 -0.14165284 0.87722629
0.057749741 -0.14160553 0.87693328
0.05931212 -0.14155826 0.87664056
0.060876247 -0.14151751 0.87638819
0.062443983 -0.141487 0.87619925
0.064011037 -0.14145648 0.8760103
0.065577425 -0.14142601 0.87582153
0.067146473 -0.14140257 0.87567645
0.068719454 -0.14138831 0.87558806
0.07029219 -0.14137419 0.87550062
0.071864612 -0.14136006 0.87541312
0.073439769 -0.14135182 0.8753621
0.075018004 -0.14134972 0.8753491
0.076602958 -0.14136009 0.87541336
0.078188643 -0.14137138 0.87548327
0.07977549 -0.14138429 0.87556314
0.08136756 -0.14140576 0.87569618
0.082972169 -0.1414478 0.87595648
0.08457569 -0.14148644 0.87619573
0.086178578 -0.14152262 0.87641984
0.087794721 -0.14157888 0.87676823
0.08941216 -0.14163519 0.87711698
0.091028951 -0.14168854 0.87744737
0.092654563 -0.14175355 0.87785
0.094283015 -0.14182067 0.87826562
0.095913015 -0.14188784 0.8786816
0.097553313 -0.14196783 0.87917691
0.09920039 -0.14205496 0.87971652
0.10084949 -0.14214219 0.88025671
0.10250062 -0.14222954 0.88079762
0.10416348 -0.14233024 0.88142127
0.10583615 -0.14244112 0.88210797
0.10752717 -0.14257306 0.88292503
0.10922133 -0.14270525 0.88374358
0.11091865 -0.14283769 0.88456374
0.11263244 -0.14298728 0.88549018
0.11436709 -0.14315881 0.88655239
0.11610593 -0.14333077 0.88761735
0.11784893 -0.14350313 0.88868469
0.11961793 -0.14370207 0.88991678
0.12140787 -0.14392059 0.89126992
0.12320756 -0.14414479 0.89265841
0.12501289 -0.14436972 0.89405131
0.12684241 -0.14461651 0.89557964
0.1287249 -0.14491671 0.89743876
0.13061522 -0.14521816 0.89930558
0.13252197 -0.14553027 0.90123838
0.13444221 -0.14584944 0.90321487
0.13641341 -0.14621557 0.90548229
0.13841785 -0.14660825 0.9079141
0.14045124 -0.14702205 0.91047668
0.14255488 -0.14749898 0.91343021
0.1447657 -0.14807464 0.91699511
0.14712849 -0.14879097 0.92143118
0.14969814 -0.14969814 0.9270491
0.15259857 -0.1509124 0.93456876
-0.012968166 -0.15302436 0.95835555
-0.01106218 -0.15061583 0.94327152
-0.0092946757 -0.14955978 0.93665779
-0.0075628036 -0.14873514 0.93149316
-0.0058548357 -0.14804371 0.92716289
-0.0041637504 -0.14739676 0.92311126
-0.0024885091 -0.14682204 0.91951191
-0.00082655891 -0.14630093 0.91624832
0.00082393736 -0.14583692 0.9133423
0.0024653247 -0.14545415 0.91094518
0.0040997481 -0.1451311 0.9089219
0.0057286895 -0.14485401 0.90718657
0.0073521179 -0.14459164 0.90554351
0.0089698555 -0.14433312 0.90392447
0.010582313 -0.14408225 0.90235329
0.012189176 -0.14383227 0.90078771
0.013790472 -0.14358316 0.89922756
0.015387095 -0.14334293 0.89772308
0.016979426 -0.1431123 0.89627874
0.018567611 -0.14288987 0.89488566
0.020150863 -0.14266811 0.89349681
0.021729842 -0.14245118 0.8921383
0.023305947 -0.14224665 0.89085728
0.02487909 -0.14205159 0.88963568
0.02645109 -0.14187403 0.8885237
0.028022973 -0.14171618 0.8875351
0.029592291 -0.14156312 0.88657653
0.031161094 -0.14142342 0.88570166
0.032732442 -0.14130835 0.88498098
0.034301236 -0.14119346 0.88426143
0.035869826 -0.14108799 0.88360089
0.037436228 -0.14098325 0.88294494
0.03900031 -0.14087868 0.88229001
0.040562071 -0.14077425 0.88163602
0.042126749 -0.14068744 0.88109237
0.043692246 -0.14060959 0.8806048
0.045256268 -0.14053263 0.88012278
0.046818577 -0.14045574 0.87964123
0.048379183 -0.14037894 0.87916028
0.049938083 -0.14030223 0.87867987
0.051495273 -0.14022559 0.87819988
0.053056132 -0.14016321 0.87780929
0.054621641 -0.14011638 0.87751597
0.056186106 -0.14006959 0.8772229
0.057749517 -0.1400228 0.87692988
0.059311889 -0.13997605 0.87663716
0.060876578 -0.13993707 0.87639296
0.062444322 -0.1399069 0.87620401
0.064011388 -0.13987672 0.87601507
0.065577775 -0.13984659 0.8758263
0.067146085 -0.13982184 0.87567133
0.068719119 -0.13980787 0.87558377
0.070291847 -0.1397939 0.87549633
0.071864255 -0.13977993 0.87540877
0.073439918 -0.13977274 0.87536383
0.075017437 -0.13976933 0.87534243
0.07660237 -0.13977958 0.87540668
0.07818839 -0.13979135 0.87548041
0.079775229 -0.13980411 0.87556028
0.081365839 -0.13982286 0.87567765
0.082970411 -0.1398644 0.87593788
0.084575936 -0.13990599 0.87619829
0.086177833 -0.13994016 0.87641227
0.087793961 -0.13999577 0.8767606
0.089411385 -0.14005145 0.87710935
0.091028884 -0.14010532 0.87744671
0.092655033 -0.14017044 0.87785447
0.094283499 -0.14023679 0.87827009
0.095913507 -0.14030322 0.87868613
0.097551644 -0.14037919 0.87916189
0.099198699 -0.14046535 0.8797015
0.10084777 -0.14055161 0.88024169
0.10249886 -0.14063796 0.88078254
0.10416271 -0.14073893 0.88141483
0.10583299 -0.1408454 0.88208163
0.10752396 -0.14097585 0.88289863
0.10921806 -0.14110655 0.88371712
0.11091532 -0.1412375 0.88453722
0.11263035 -0.14138705 0.88547379
0.11436497 -0.14155665 0.886536
0.11610378 -0.14172669 0.8876009
0.11784675 -0.14189711 0.88866824
0.11961657 -0.14209485 0.88990664
0.12140561 -0.14230989 0.89125335
0.12320527 -0.14253159 0.89264178
0.12501056 -0.14275399 0.89403468
0.12683892 -0.14299674 0.89555496
0.12872136 -0.14329359 0.89741403
0.1306116 -0.14359164 0.89928067
0.13251951 -0.14390156 0.90122157
0.13443969 -0.14421712 0.90319794
0.13640653 -0.14457458 0.90543658
0.13841221 -0.14496428 0.90787715
0.1404455 -0.14537342 0.91043955
0.1425475 -0.1458434 0.91338289
0.14475809 -0.14641248 0.91694689
0.14711669 -0.14711669 0.92135727
0.14968655 -0.14801407 0.92697734
0.15258777 -0.14921567 0.93450266
-0.012983457 -0.15147367 0.95948559
-0.01106336 -0.14892985 0.94337219
-0.0092942454 -0.147863 0.93661439
-0.0075632972 -0.1470641 0.93155396
-0.0058548823 -0.14637205 0.92717028
-0.0041639786 -0.14573926 0.92316186
-0.0024885994 -0.1451683 0.91954529
-0.00082659378 -0.14465392 0.91628695
0.00082396436 -0.14419377 0.91337222
0.0024654262 -0.14381653 0.91098267
0.0040998105 -0.14349337 0.90893567
0.00572873 -0.14321825 0.90719301
0.0073521873 -0.14295921 0.90555209
0.0089699654 -0.142704 0.90393555
0.010582427 -0.14245576 0.90236306
0.012189308 -0.14220859 0.90079749
0.013790621 -0.14196229 0.89923728
0.015387363 -0.14172572 0.89773875
0.016979648 -0.14149706 0.89629042
0.018567851 -0.14127713 0.89489728
0.020151123 -0.14105786 0.89350837
0.021730205 -0.14084393 0.8921532
0.023306238 -0.14064109 0.89086837
0.024879413 -0.1404483 0.88964719
0.026451159 -0.14027131 0.88852602
0.028023047 -0.14011525 0.88753748
0.029592065 -0.13996248 0.8865698
0.031161185 -0.13982584 0.88570428
0.032732539 -0.13971207 0.8849836
0.034301337 -0.13959846 0.88426405
0.035869636 -0.13949303 0.88359618
0.037436031 -0.13938947 0.88294023
0.039000101 -0.13928609 0.8822853
0.040561855 -0.13918284 0.88163131
0.042127006 -0.13909861 0.88109779
0.043692365 -0.13902117 0.88060725
0.045256395 -0.13894507 0.88012522
0.046818703 -0.13886903 0.87964362
0.048379313 -0.13879311 0.87916267
0.049938217 -0.13871726 0.87868226
0.051495411 -0.13864149 0.87820226
0.053055935 -0.13857894 0.87780601
0.054621436 -0.13853264 0.87751269
0.056185897 -0.13848637 0.87721962
0.057749301 -0.1384401 0.8769266
0.059311666 -0.13839388 0.87663382
0.060876917 -0.13835663 0.87639785
0.062444665 -0.13832679 0.87620884
0.064011738 -0.13829696 0.8760199
0.06557814 -0.13826716 0.87583113
0.06714575 -0.13824125 0.87566698
0.068718776 -0.13822742 0.87557942
0.070291497 -0.1382136 0.87549192
0.071864292 -0.13820057 0.87540925
0.07344006 -0.13819367 0.87536556
0.075016871 -0.13818897 0.87533587
0.076601796 -0.13819912 0.87540013
0.078188129 -0.13821134 0.87547749
0.079774961 -0.13822395 0.87555736
0.081364125 -0.13824001 0.87565917
0.08296866 -0.13828109 0.8759194
0.084574148 -0.1383222 0.87617975
0.086177208 -0.13835791 0.87640589
0.087793201 -0.1384127 0.87675303
0.089410603 -0.13846774 0.87710172
0.091029301 -0.13852285 0.8774507
0.09265551 -0.1385873 0.877859
0.094283983 -0.13865292 0.87827462
0.095913999 -0.13871859 0.87869066
0.097549975 -0.13879062 0.87914687
0.099197 -0.1388758 0.87968642
0.10084604 -0.13896108 0.88022661
0.10249763 -0.13904718 0.88077199
0.10416193 -0.13914761 0.88140821
0.10582983 -0.13924977 0.88205534
0.10752074 -0.13937874 0.88287222
0.1092148 -0.13950795 0.88369071
0.110912 -0.13963741 0.88451076
0.11262824 -0.13978682 0.88545722
0.11436285 -0.13995454 0.88651955
0.11610162 -0.14012265 0.88758439
0.11784455 -0.14029114 0.88865167
0.11961522 -0.14048767 0.88989657
0.12140336 -0.14069925 0.89123684
0.12320299 -0.14091845 0.89262527
0.12500823 -0.14113833 0.89401805
0.12683541 -0.14137705 0.89553022
0.1287178 -0.14167053 0.89738917
0.13060798 -0.1419652 0.89925569
0.13251702 -0.14227287 0.90120471
0.13443717 -0.14258488 0.90318102
0.13639963 -0.14293374 0.9053908
0.13840659 -0.14332043 0.90784025
0.14043978 -0.14372492 0.91040242
0.1425401 -0.14418796 0.91333544
0.14475048 -0.14475048 0.91689867
0.14710489 -0.14544268 0.9212833
0.14967497 -0.14633028 0.92690563
0.15257697 -0.14751916 0.93443644
-0.012992441 -0.14984615 0.96014947
-0.011063976 -0.14723599 0.9434247
-0.0092938161 -0.14616638 0.93657112
-0.0075637903 -0.14539285 0.9316147
-0.0058549289 -0.14470039 0.92717767
-0.0041642068 -0.14408156 0.92321247
-0.0024886897 -0.14351444 0.91957867
-0.00082662853 -0.14300674 0.91632551
0.00082398986 -0.14255024 0.91340047
0.002465528 -0.14217877 0.91102028
0.0040998724 -0.14185558 0.90894938
0.0057287845 -0.14158282 0.90720159
0.0073522567 -0.14132671 0.90556061
0.0089700753 -0.14107482 0.90394658
0.010582543 -0.14082924 0.90237296
0.012189441 -0.14058489 0.90080732
0.013790772 -0.14034139 0.89924711
0.015387633 -0.14010845 0.89775449
0.016979869 -0.13988177 0.8963021
0.018568093 -0.13966435 0.89490896
0.020151386 -0.13944758 0.89352
0.021730566 -0.1392366 0.89216805
0.023306524 -0.13903548 0.89087933
0.024879733 -0.13884497 0.88965863
0.02645128 -0.13866884 0.88853008
0.028023124 -0.1385143 0.88753986
0.029591843 -0.13836186 0.88656312
0.031161278 -0.13822824 0.8857069
0.032732636 -0.13811575 0.88498616
0.034301437 -0.13800347 0.88426667
0.035869438 -0.13789806 0.88359129
0.037435826 -0.1377957 0.8829354
0.038999889 -0.13769348 0.88228047
0.040561631 -0.13759142 0.88162649
0.042127263 -0.13750975 0.88110316
0.043692484 -0.13743272 0.88060963
0.045256518 -0.1373575 0.88012761
0.04681883 -0.13728234 0.879646
0.048379444 -0.13720728 0.87916505
0.049938351 -0.1371323 0.87868464
0.051495552 -0.13705739 0.87820464
0.053055726 -0.13699464 0.87780255
0.054621227 -0.13694887 0.8775093
0.056185678 -0.13690314 0.87721622
0.057749078 -0.13685741 0.8769232
0.059311435 -0.1368117 0.87663043
0.060877249 -0.13677615 0.87640262
0.062445007 -0.13674666 0.87621361
0.064012088 -0.13671717 0.87602466
0.065578498 -0.13668771 0.8758359
0.067145415 -0.13666067 0.87566257
0.068718433 -0.136647 0.87557501
0.070291147 -0.13663335 0.87548757
0.071864441 -0.1366214 0.87541103
0.073440216 -0.13661459 0.8753674
0.075016312 -0.13660865 0.87532932
0.076601341 -0.13661888 0.87539488
0.078187868 -0.13663132 0.87547463
0.0797747 -0.1366438 0.8755545
0.081362404 -0.13665724 0.87564063
0.082966901 -0.13669784 0.87590086
0.084572352 -0.13673848 0.87616122
0.086177878 -0.13677774 0.87641275
0.087792434 -0.13682966 0.8767454
0.089409389 -0.13688341 0.8770898
0.091027088 -0.13693641 0.87742943
0.092655979 -0.13700415 0.87786347
0.09428446 -0.137069 0.87827909
0.095914491 -0.13713394 0.87869513
0.097548299 -0.13720208 0.87913173
0.099195287 -0.13728628 0.87967128
0.1008443 -0.13737059 0.88021147
0.10249688 -0.13745706 0.8807655
0.10416116 -0.13755634 0.88140172
0.10582786 -0.13765578 0.88203889
0.10751753 -0.13778172 0.88284588
0.10921153 -0.13790944 0.88366425
0.11090869 -0.13803743 0.88448429
0.11262609 -0.13818662 0.88544029
0.11436072 -0.13835248 0.88650304
0.11609945 -0.13851866 0.88756782
0.11784236 -0.13868523 0.8886351
0.11961386 -0.13888052 0.88988644
0.12140165 -0.1390893 0.89122427
0.12320071 -0.13930538 0.89260876
0.12500592 -0.13952273 0.89400148
0.12683192 -0.13975747 0.89550555
0.12871423 -0.14004757 0.89736438
0.13060437 -0.14033885 0.89923084
0.13251455 -0.14064427 0.90118784
0.13443466 -0.14095269 0.90316409
0.13639274 -0.14129308 0.90534508
0.13840096 -0.14167672 0.9078033
0.14043406 -0.14207655 0.91036528
0.14252551 -0.14252551 0.91324198
0.14474288 -0.14308867 0.91685051
0.14709307 -0.14376894 0.92120934
0.14966339 -0.14464673 0.92683393
0.15256616 -0.1458229 0.93437028
-0.013001435 -0.14821637 0.96081424
-0.011064432 -0.14553984 0.94346356
-0.0092933858 -0.1444699 0.93652773
-0.0075642844 -0.1437214 0.93167555
-0.0058549759 -0.14302871 0.92718512
-0.004164435 -0.14242367 0.92326307
-0.0024887803 -0.14186049 0.91961211
-0.0008266634 -0.14135945 0.91636413
0.00082401535 -0.14090662 0.91342872
0.0024656106 -0.14053981 0.91105086
0.0040999344 -0.14021775 0.90896314
0.0057288385 -0.13994734 0.90721017
0.0073523265 -0.1396942 0.9055692
0.0089701843 -0.13944559 0.90395761
0.010582658 -0.13920267 0.90238279
0.012189574 -0.13896114 0.9008171
0.013790922 -0.13872045 0.89925689
0.015387901 -0.13849111 0.89777017
0.016980093 -0.13826647 0.89631391
0.018568337 -0.13805155 0.89492071
0.020151651 -0.13783729 0.89353174
0.021730928 -0.13762921 0.89218289
0.023306815 -0.13742983 0.89089042
0.024880055 -0.13724159 0.88967013
0.026451489 -0.13706681 0.88853711
0.0280232 -0.13691334 0.88754231
0.029591618 -0.13676126 0.88655639
0.031161366 -0.13663061 0.8857094
0.032732729 -0.13651943 0.88498873
0.034301534 -0.13640843 0.88426918
0.035869241 -0.13630311 0.88358647
0.037435617 -0.13620193 0.88293052
0.038999677 -0.1361009 0.88227564
0.040561412 -0.13600002 0.88162166
0.042127527 -0.13592088 0.88110864
0.043692604 -0.13584428 0.88061202
0.045256641 -0.13576992 0.88012999
0.04681896 -0.13569564 0.87964845
0.048379574 -0.13562143 0.87916744
0.049938489 -0.13554733 0.87868702
0.05149569 -0.13547328 0.87820703
0.053055521 -0.13541035 0.87779915
0.054621015 -0.13536513 0.8775059
0.056185462 -0.13531992 0.87721282
0.057748854 -0.13527471 0.87691981
0.059311207 -0.13522956 0.87662709
0.060877576 -0.13519566 0.87640733
0.062445346 -0.13516651 0.87621838
0.064012431 -0.13513736 0.87602943
0.065578848 -0.13510823 0.8758406
0.067145072 -0.13508008 0.87565815
0.068718083 -0.13506658 0.8755706
0.070290789 -0.1350531 0.87548316
0.071864583 -0.13504224 0.87541276
0.073440358 -0.1350355 0.87536913
0.075015977 -0.13502875 0.87532538
0.076601081 -0.13503903 0.87539196
0.078187607 -0.13505132 0.87547171
0.079774432 -0.13506365 0.87555158
0.08136154 -0.13507596 0.87563139
0.08296515 -0.13511467 0.87588233
0.084570564 -0.13515483 0.87614268
0.086176947 -0.13519502 0.87640321
0.087790601 -0.13524498 0.8767271
0.089407004 -0.13529733 0.87706643
0.091024667 -0.13534972 0.87740606
0.092656463 -0.13542099 0.87786806
0.094284959 -0.1354851 0.87828368
0.095914997 -0.13554929 0.87869978
0.097546637 -0.13561362 0.87911677
0.099193595 -0.13569684 0.87965626
0.10084257 -0.13578016 0.88019639
0.10249612 -0.13586695 0.88075906
0.1041604 -0.13596511 0.88139528
0.10582708 -0.13606338 0.88203239
0.10751431 -0.1361848 0.88281947
0.10920826 -0.13631104 0.88363785
0.11090624 -0.13643861 0.88446474
0.11262394 -0.13658649 0.88542336
0.11435861 -0.1367505 0.88648665
0.11609731 -0.13691476 0.88755143
0.11784018 -0.13707939 0.88861865
0.11961251 -0.13727343 0.88987648
0.12140028 -0.1374798 0.89121425
0.12319842 -0.13769235 0.89259219
0.12500359 -0.13790719 0.89398491
0.12682842 -0.13813797 0.89548087
0.12871069 -0.13842469 0.89733964
0.13060075 -0.1387126 0.89920598
0.13251208 -0.13901573 0.90117103
0.13443214 -0.13932058 0.90314716
0.13638584 -0.13965258 0.90529937
0.13839532 -0.14003314 0.90776634
0.14042832 -0.14042832 0.91032809
0.14250976 -0.14086224 0.91314107
0.14473526 -0.14142703 0.91680229
0.14708129 -0.14209549 0.92113554
0.1496518 -0.14296345 0.92676216
0.15255536 -0.14412689 0.93430418
-0.013010444 -0.14658433 0.96147996
-0.011064887 -0.14384353 0.94350237
-0.0092932824 -0.14277862 0.93651736
-0.007564778 -0.14204971 0.93173635
-0.0058550225 -0.14135697 0.92719251
-0.0041646631 -0.14076562 0.92331368
-0.0024888706 -0.14020638 0.91964549
-0.00082669826 -0.13971201 0.91640276
0.00082404091 -0.13926291 0.9134571
0.002465684 -0.13890019 0.91107792
0.0040999963 -0.13857988 0.90897685
0.0057288925 -0.13831183 0.90721875
0.0073523954 -0.13806166 0.90557772
0.0089702932 -0.13781632 0.90396857
0.010582773 -0.13757606 0.90239257
0.012189706 -0.13733736 0.90082687
0.013791071 -0.13709947 0.8992666
0.015388171 -0.13687374 0.8977859
0.016980371 -0.13665155 0.89632857
0.018568579 -0.13643868 0.89493233
0.020151911 -0.13622692 0.8935433
0.021731291 -0.13602179 0.89219779
0.023307102 -0.13582414 0.89090139
0.024880374 -0.13563816 0.88968152
0.026451701 -0.13546477 0.8885442
0.028023303 -0.13531251 0.88754553
0.029591685 -0.13516203 0.88655841
0.031161459 -0.13503298 0.88571203
0.032732826 -0.13492312 0.88499135
0.034301639 -0.13481341 0.8842718
0.035869051 -0.13470821 0.88358176
0.03743542 -0.13460821 0.88292581
0.038999468 -0.13450837 0.88227093
0.040561195 -0.13440867 0.88161695
0.042127784 -0.13433199 0.88111401
0.043692727 -0.13425584 0.88061452
0.045256767 -0.13418235 0.8801325
0.046819091 -0.13410893 0.87965089
0.048379712 -0.1340356 0.87916994
0.04993863 -0.13396236 0.87868953
0.051495839 -0.13388918 0.87820953
0.053055316 -0.13382609 0.87779576
0.054620802 -0.13378139 0.8775025
0.056185242 -0.1337367 0.87720942
0.057748631 -0.13369203 0.87691641
0.05931098 -0.13364741 0.87662369
0.060877908 -0.13361515 0.87641209
0.062445685 -0.13358635 0.87622315
0.064012781 -0.13355753 0.8760342
0.065579012 -0.13352835 0.87584275
0.067144744 -0.13349955 0.87565386
0.068717748 -0.1334862 0.8755663
0.070290446 -0.13347287 0.87547886
0.071864724 -0.13346307 0.87541455
0.073440507 -0.13345641 0.87537086
0.075016126 -0.13344973 0.87532711
0.076600835 -0.13345918 0.8753891
0.078187361 -0.13347135 0.87546891
0.079774171 -0.13348351 0.87554872
0.081361279 -0.13349569 0.87562853
0.0829634 -0.13353157 0.87586385
0.084568784 -0.13357125 0.8761242
0.086173356 -0.13360824 0.87636673
0.087788254 -0.13365959 0.87670362
0.089404613 -0.13371132 0.87704295
0.091022223 -0.13376309 0.87738252
0.092653677 -0.13383308 0.87784159
0.094285443 -0.13390118 0.87828821
0.095915481 -0.1339646 0.87870425
0.097547077 -0.13402809 0.87912071
0.099191889 -0.13410744 0.87964112
0.10084084 -0.13418978 0.88018125
0.10249537 -0.13427688 0.88075256
0.10415963 -0.13437387 0.88138878
0.1058263 -0.13447101 0.8820259
0.1075111 -0.13458796 0.88279301
0.10920499 -0.13471273 0.88361132
0.11090456 -0.13484079 0.88445139
0.11262179 -0.1349864 0.88540649
0.11435648 -0.13514857 0.88647014
0.11609514 -0.13531089 0.88753486
0.11783798 -0.13547359 0.88860208
0.11961115 -0.13566634 0.88986635
0.1213989 -0.13587029 0.89120412
