# .PCD v0.7 - Point Cloud Data file format
VERSION 0.7
FIELDS x y z
SIZE 4 4 4
TYPE F F F
COUNT 1 1 1
WIDTH 1387
HEIGHT 1
VIEWPOINT 0 0 0 1 0 0 0
POINTS 1387
DATA ascii
0.0053148335 -0.0010629668 1.1783086
0.0074428953 -0.0010632707 1.1786456
0.0095721753 -0.001063575 1.1789829
0.011702674 -0.0010638795 1.1793203
0.013834392 -0.001064184 1.1796579
0.015967332 -0.0010644888 1.1799958
0.018101491 -0.0010647937 1.1803337
0.020236878 -0.0010650988 1.180672
0.022373486 -0.0010654042 1.1810105
0.024511321 -0.0010657095 1.181349
0.02665038 -0.0010660152 1.1816878
0.028790668 -0.001066321 1.1820269
0.030932182 -0.001066627 1.182366
0.033085927 -0.001067288 1.1830988
0.035253379 -0.0010682843 1.1842031
0.037424881 -0.0010692824 1.1853095
0.039600447 -0.0010702824 1.1864181
0.041780084 -0.0010712842 1.1875286
0.043963809 -0.001072288 1.1886413
0.046151631 -0.0010732937 1.1897562
0.04834355 -0.0010743012 1.1908729
0.050539602 -0.0010753106 1.1919919
0.052739777 -0.0010763219 1.193113
0.054944094 -0.0010773352 1.1942362
0.057152562 -0.0010783502 1.1953614
0.059365198 -0.0010793672 1.1964887
0.061582021 -0.0010803863 1.1976184
0.063803025 -0.0010814072 1.19875
0.06602823 -0.00108243 1.1998838
0.068257652 -0.0010834547 1.2010198
0.070491292 -0.0010844815 1.2021579
0.072729185 -0.0010855101 1.2032982
0.074971311 -0.0010865408 1.2044406
0.077269405 -0.0010883015 1.2063924
0.079599455 -0.0010904034 1.2087225
0.081938513 -0.0010925136 1.2110615
0.084286653 -0.0010946319 1.2134097
0.086643912 -0.0010967583 1.2157669
0.089010343 -0.0010988931 1.2181333
0.091386005 -0.0011010362 1.2205089
0.093770951 -0.0011031877 1.2228938
0.096165247 -0.0011053476 1.2252883
0.098568924 -0.001107516 1.2276919
0.10098205 -0.0011096929 1.2301049
0.1034047 -0.0011118784 1.2325277
0.10583689 -0.0011140725 1.2349598
0.1082787 -0.0011162753 1.2374016
0.11076849 -0.0011188736 1.2402819
0.11349354 -0.0011236984 1.2456303
0.11624219 -0.0011285649 1.2510248
0.11901474 -0.0011334737 1.2564663
0.12181153 -0.0011384255 1.2619554
0.12463285 -0.0011434207 1.2674925
0.12747908 -0.0011484601 1.2730788
0.13035047 -0.0011535439 1.2787143
0.13405249 -0.0011656738 1.2921604
-0.16551618 0.0011574558 1.2830507
-0.16243112 0.0011519938 1.2769959
-0.15937503 0.0011465829 1.2709979
-0.1563475 0.0011412227 1.265056
-0.15334816 0.0011359123 1.2591695
-0.1503766 0.0011306511 1.2533374
-0.14743243 0.0011254385 1.2475591
-0.14451531 0.0011202737 1.2418339
-0.14183578 0.0011168171 1.2380023
-0.13931827 0.0011145461 1.2354848
-0.13681096 0.0011122843 1.2329775
-0.13431382 0.0011100316 1.2304804
-0.13182677 0.0011077879 1.2279934
-0.12934975 0.0011055535 1.2255164
-0.1268827 0.0011033278 1.2230493
-0.12442558 0.0011011113 1.2205923
-0.12197829 0.0010989036 1.2181449
-0.11954082 0.0010967047 1.2157075
-0.11711306 0.0010945146 1.2132797
-0.11469499 0.0010923332 1.2108617
-0.11228655 0.0010901607 1.2084533
-0.10988766 0.0010879966 1.2060544
-0.10755036 0.0010863673 1.2042483
-0.10527623 0.001085322 1.2030896
-0.10300647 0.0010842786 1.201933
-0.10074107 0.0010832374 1.2007787
-0.098480023 0.001082198 1.1996267
-0.096223302 0.0010811607 1.1984768
-0.09397091 0.0010801255 1.1973292
-0.091722824 0.001079092 1.1961837
-0.089479037 0.0010780606 1.1950403
-0.087239534 0.0010770313 1.1938993
-0.0850043 0.0010760039 1.1927603
-0.082773335 0.0010749784 1.1916236
-0.080546618 0.0010739549 1.1904891
-0.078324124 0.0010729332 1.1893566
-0.076105878 0.0010719137 1.1882265
-0.073891833 0.0010708962 1.1870984
-0.071681976 0.0010698803 1.1859723
-0.069476314 0.0010688663 1.1848484
-0.067274839 0.0010678546 1.1837268
-0.065077513 0.0010668446 1.1826072
-0.062922843 0.0010664889 1.1822129
-0.060772359 0.0010661818 1.1818725
-0.058623105 0.0010658746 1.181532
-0.056475088 0.0010655677 1.1811918
-0.054328311 0.001065261 1.1808518
-0.052182768 0.0010649544 1.180512
-0.050038457 0.001064648 1.1801723
-0.047895383 0.0010643419 1.1798329
-0.045753539 0.0010640358 1.1794937
-0.043612923 0.0010637299 1.1791545
-0.041473545 0.0010634242 1.1788157
-0.039335392 0.0010631187 1.178477
-0.037198469 0.0010628133 1.1781386
-0.035062771 0.0010625082 1.1778003
-0.032928303 0.0010622033 1.1774623
-0.030795058 0.0010618985 1.1771245
-0.028663035 0.0010615939 1.1767868
-0.026532236 0.0010612895 1.1764493
-0.024402659 0.0010609853 1.1761121
-0.022274302 0.0010606811 1.1757749
-0.020147167 0.0010603772 1.175438
-0.018021246 0.0010600734 1.1751013
-0.015899034 0.0010599357 1.1749486
-0.013783093 0.0010602379 1.1752837
-0.011665945 0.0010605404 1.175619
-0.0095475875 0.001060843 1.1759545
-0.0074280216 0.001061146 1.1762903
-0.0053072451 0.0010614491 1.1766262
-0.0031852566 0.0010617522 1.1769623
-0.0010620556 0.0010620556 1.1772985
0.0010623591 0.0010623591 1.177635
0.0031879882 0.0010626627 1.1779716
0.005314833 0.0010629667 1.1783085
0.0074428953 0.0010632707 1.1786456
0.0095721735 0.0010635749 1.1789827
0.011702673 0.0010638793 1.1793202
0.013834392 0.001064184 1.1796579
0.015967332 0.0010644888 1.1799958
0.018101491 0.0010647937 1.1803337
0.020236876 0.0010650987 1.1806719
0.022373484 0.001065404 1.1810104
0.024511317 0.0010657094 1.1813489
0.026650377 0.0010660151 1.1816877
0.028790664 0.0010663209 1.1820267
0.030932182 0.001066627 1.182366
0.033085927 0.0010672879 1.1830987
0.035253379 0.0010682842 1.184203
0.037424877 0.0010692823 1.1853094
0.039600443 0.0010702823 1.1864179
0.041780084 0.0010712842 1.1875286
0.043963809 0.001072288 1.1886413
0.046151627 0.0010732936 1.189756
0.04834355 0.0010743012 1.1908729
0.050539594 0.0010753105 1.1919918
0.052739769 0.0010763218 1.1931129
0.054944091 0.0010773351 1.194236
0.057152558 0.0010783501 1.1953613
0.059365198 0.0010793672 1.1964887
0.061582021 0.0010803863 1.1976184
0.063803025 0.0010814072 1.19875
0.06602823 0.00108243 1.1998838
0.068257652 0.0010834547 1.2010198
0.070491292 0.0010844815 1.2021579
0.072729185 0.0010855101 1.2032982
0.074971311 0.0010865408 1.2044406
0.077269405 0.0010883015 1.2063924
0.079599455 0.0010904034 1.2087225
0.081938513 0.0010925136 1.2110615
0.084286653 0.0010946319 1.2134097
0.086643912 0.0010967583 1.2157669
0.089010343 0.0010988931 1.2181333
0.091386005 0.0011010362 1.2205089
0.093770951 0.0011031877 1.2228938
0.096165247 0.0011053476 1.2252883
0.098568931 0.0011075161 1.227692
0.10098206 0.001109693 1.230105
0.1034047 0.0011118784 1.2325277
0.1058369 0.0011140726 1.23496
0.10827871 0.0011162753 1.2374017
0.11076849 0.0011188736 1.2402819
0.11349354 0.0011236984 1.2456303
0.11624219 0.0011285649 1.2510248
0.11901474 0.0011334737 1.2564663
0.12181153 0.0011384255 1.2619554
0.12463289 0.0011434209 1.2674929
0.12747908 0.0011484601 1.2730788
0.13035049 0.0011535441 1.2787144
0.13405259 0.0011656747 1.2921613
-0.16551617 0.0034723673 1.2830505
-0.16243111 0.0034559809 1.2769958
-0.15937501 0.0034397484 1.2709978
-0.15634748 0.0034236675 1.2650559
-0.15334815 0.0034077365 1.2591693
-0.15037657 0.0033919527 1.2533371
-0.14743242 0.0033763151 1.247559
-0.14451528 0.0033608205 1.2418337
-0.14183576 0.0033504511 1.2380022
-0.13931826 0.003343638 1.2354847
-0.13681096 0.0033368526 1.2329775
-0.13431381 0.0033300945 1.2304803
-0.13182677 0.0033233638 1.2279934
-0.12934975 0.0033166602 1.2255163
-0.12688269 0.0033099833 1.2230492
-0.12442557 0.0033033337 1.2205921
-0.12197829 0.0032967106 1.2181449
-0.11954081 0.003290114 1.2157074
-0.11711306 0.0032835437 1.2132797
-0.11469499 0.0032769998 1.2108617
-0.11228654 0.0032704817 1.2084532
-0.10988764 0.0032639895 1.2060543
-0.10755035 0.0032591014 1.2042482
-0.10527622 0.0032559657 1.2030895
-0.10300646 0.0032528355 1.2019329
-0.10074107 0.0032497118 1.2007787
-0.098480009 0.0032465938 1.1996266
-0.096223302 0.0032434822 1.1984768
-0.093970902 0.003240376 1.197329
-0.091722824 0.0032372761 1.1961837
-0.089479022 0.0032341816 1.1950402
-0.087239526 0.0032310935 1.1938992
-0.085004292 0.0032280111 1.1927602
-0.082773335 0.0032249349 1.1916236
-0.08054661 0.0032218643 1.1904889
-0.078324124 0.0032187998 1.1893566
-0.07610587 0.0032157409 1.1882263
-0.073891826 0.003212688 1.1870983
-0.071681969 0.0032096405 1.1859722
-0.069476314 0.0032065993 1.1848484
-0.067274831 0.0032035634 1.1837267
-0.065077513 0.0032005333 1.1826071
-0.062922843 0.0031994667 1.1822129
-0.060772356 0.003198545 1.1818724
-0.058623098 0.0031976236 1.1815319
-0.056475084 0.0031967028 1.1811917
-0.054328308 0.0031957827 1.1808517
-0.05218276 0.003194863 1.1805118
-0.050038457 0.003193944 1.1801723
-0.047895379 0.0031930252 1.1798328
-0.045753535 0.003192107 1.1794935
-0.043612923 0.0031911896 1.1791545
-0.041473545 0.0031902727 1.1788157
-0.039335392 0.0031893561 1.178477
-0.037198469 0.0031884401 1.1781386
-0.035062771 0.0031875246 1.1778003
-0.032928303 0.0031866098 1.1774623
-0.030795058 0.0031856957 1.1771245
-0.028663035 0.0031847816 1.1767868
-0.026532236 0.0031838682 1.1764493
-0.024402659 0.0031829556 1.1761121
-0.022274302 0.0031820433 1.1757749
-0.020147167 0.0031811316 1.175438
-0.018021246 0.00318022 1.1751013
-0.015899034 0.0031798068 1.1749486
-0.013783093 0.0031807136 1.1752837
-0.011665945 0.0031816212 1.175619
-0.0095475875 0.003182529 1.1759545
-0.0074280216 0.003183438 1.1762903
-0.0053072451 0.0031843472 1.1766262
-0.0031852566 0.0031852566 1.1769623
-0.0010620556 0.0031861668 1.1772985
0.0010623591 0.0031870771 1.177635
0.0031879882 0.0031879882 1.1779716
0.005314833 0.0031889 1.1783085
0.0074428953 0.0031898122 1.1786456
0.0095721735 0.0031907246 1.1789827
0.011702673 0.003191638 1.1793202
0.013834392 0.0031925519 1.1796579
0.015967332 0.0031934662 1.1799958
0.018101491 0.003194381 1.1803337
0.020236876 0.0031952963 1.1806719
0.022373484 0.003196212 1.1810104
0.024511317 0.0031971284 1.1813489
0.026650377 0.0031980453 1.1816877
0.028790664 0.0031989627 1.1820267
0.030932182 0.0031998809 1.182366
0.033085927 0.0032018637 1.1830987
0.035253379 0.0032048526 1.184203
0.037424877 0.0032078468 1.1853094
0.039600443 0.0032108468 1.1864179
0.041780084 0.0032138526 1.1875286
0.043963809 0.0032168641 1.1886413
0.046151627 0.0032198809 1.189756
0.04834355 0.0032229035 1.1908729
0.050539594 0.0032259317 1.1919918
0.052739769 0.0032289654 1.1931129
0.054944091 0.0032320053 1.194236
0.057152558 0.0032350505 1.1953613
0.059365198 0.0032381017 1.1964887
0.061582014 0.0032411586 1.1976182
0.063803017 0.0032442212 1.1987499
0.066028222 0.0032472897 1.1998837
0.068257652 0.0032503642 1.2010198
0.070491292 0.0032534443 1.2021579
0.072729178 0.0032565303 1.2032981
0.074971311 0.0032596223 1.2044406
0.077269405 0.0032649045 1.2063924
0.079599455 0.0032712105 1.2087225
0.081938513 0.0032775404 1.2110615
0.084286653 0.0032838956 1.2134097
0.086643912 0.0032902751 1.2157669
0.089010343 0.0032966794 1.2181333
0.091386005 0.0033031085 1.2205089
0.093770951 0.0033095628 1.2228938
0.096165247 0.0033160429 1.2252883
0.098568931 0.0033225485 1.227692
0.10098206 0.0033290789 1.230105
0.1034047 0.0033356354 1.2325277
0.1058369 0.0033422178 1.23496
0.10827871 0.0033488262 1.2374017
0.1107685 0.0033566214 1.2402821
0.11349355 0.0033710958 1.2456304
0.1162422 0.0033856952 1.251025
0.11901475 0.0034004215 1.2564664
0.12181155 0.003415277 1.2619555
0.12463289 0.0034302629 1.2674929
0.12747908 0.0034453806 1.2730789
0.13035049 0.0034606322 1.2787144
0.13405268 0.0034970264 1.2921622
-0.16551614 0.0057872776 1.2830503
-0.16243108 0.005759967 1.2769955
-0.15937498 0.0057329126 1.2709975
-0.15634747 0.0057061124 1.2650558
-0.15334812 0.0056795599 1.2591691
-0.15037656 0.0056532542 1.253337
-0.14743239 0.0056271907 1.2475587
-0.14451526 0.005601367 1.2418336
-0.14183576 0.0055840854 1.2380022
-0.13931824 0.0055727297 1.2354846
-0.13681094 0.0055614207 1.2329774
-0.13431381 0.0055501573 1.2304803
-0.13182676 0.0055389395 1.2279932
-0.12934974 0.0055277664 1.2255162
-0.12688269 0.005516639 1.2230492
-0.12442556 0.0055055558 1.220592
-0.12197828 0.0054945173 1.2181448
-0.1195408 0.005483523 1.2157073
-0.11711305 0.0054725725 1.2132796
-0.11469498 0.0054616658 1.2108616
-0.11228652 0.0054508019 1.2084531
-0.10988764 0.0054399818 1.2060542
-0.10755034 0.0054318351 1.2042481
-0.10527621 0.005426609 1.2030894
-0.10300646 0.0054213926 1.2019329
-0.10074106 0.0054161861 1.2007786
-0.098480009 0.0054109897 1.1996266
-0.096223295 0.0054058032 1.1984767
-0.093970902 0.0054006265 1.197329
-0.091722816 0.0053954599 1.1961836
-0.089479037 0.0053903032 1.1950403
-0.087239519 0.0053851553 1.193899
-0.085004292 0.0053800186 1.1927602
-0.08277332 0.0053748912 1.1916234
-0.080546603 0.0053697731 1.1904888
-0.078324117 0.0053646658 1.1893564
-0.07610587 0.0053595682 1.1882263
-0.073891819 0.0053544794 1.1870981
-0.071681961 0.0053494005 1.1859721
-0.069476306 0.0053443313 1.1848483
-0.067274824 0.0053392719 1.1837265
-0.065077506 0.0053342218 1.1826069
-0.062922843 0.0053324443 1.1822129
-0.060772356 0.0053309081 1.1818724
-0.058623098 0.0053293728 1.1815319
-0.056475084 0.005327838 1.1811917
-0.054328308 0.0053263046 1.1808517
-0.05218276 0.0053247716 1.1805118
-0.050038457 0.0053232401 1.1801723
-0.047895379 0.005321709 1.1798328
-0.045753535 0.0053201783 1.1794935
-0.043612923 0.0053186491 1.1791545
-0.041473545 0.0053171213 1.1788157
-0.039335392 0.0053155934 1.178477
-0.037198465 0.0053140665 1.1781385
-0.035062771 0.005312541 1.1778003
-0.032928299 0.005311016 1.1774622
-0.030795055 0.0053094923 1.1771244
-0.028663032 0.0053079687 1.1767867
-0.026532233 0.0053064465 1.1764492
-0.024402658 0.0053049256 1.1761119
-0.0222743 0.0053034048 1.1757748
-0.020147163 0.0053018853 1.1754379
-0.018021246 0.0053003663 1.1751012
-0.015899032 0.0052996776 1.1749485
-0.013783093 0.0053011896 1.1752837
-0.011665945 0.0053027021 1.175619
-0.0095475875 0.005304215 1.1759545
-0.0074280212 0.0053057293 1.1762902
-0.0053072446 0.0053072446 1.1766261
-0.0031852562 0.0053087603 1.1769621
-0.0010620555 0.0053102775 1.1772984
0.0010623591 0.005311795 1.177635
0.003187988 0.0053133131 1.1779715
0.0053148326 0.0053148326 1.1783084
0.0074428944 0.0053163534 1.1786455
0.0095721753 0.0053178747 1.1789829
0.011702673 0.0053193965 1.1793202
0.013834392 0.0053209201 1.1796579
0.015967332 0.0053224438 1.1799958
0.018101491 0.0053239684 1.1803337
0.020236876 0.0053254934 1.1806719
0.022373484 0.0053270203 1.1810104
0.024511317 0.0053285472 1.1813489
0.026650377 0.0053300755 1.1816877
0.028790664 0.0053316047 1.1820267
0.030932182 0.0053331349 1.182366
0.033085927 0.0053364397 1.1830987
0.035253379 0.0053414209 1.184203
0.037424877 0.0053464114 1.1853094
0.039600443 0.0053514112 1.1864179
0.041780084 0.0053564212 1.1875286
0.043963809 0.0053614401 1.1886413
0.046151627 0.0053664679 1.189756
0.04834355 0.0053715059 1.1908729
0.050539594 0.0053765527 1.1919918
0.052739769 0.0053816093 1.1931129
0.054944091 0.0053866752 1.194236
0.057152558 0.005391751 1.1953613
0.059365198 0.0053968364 1.1964887
0.061582014 0.0054019312 1.1976182
0.063803017 0.0054070354 1.1987499
0.066028222 0.0054121497 1.1998837
0.068257652 0.0054172738 1.2010198
0.070491292 0.0054224073 1.2021579
0.072729178 0.0054275505 1.2032981
0.074971311 0.0054327035 1.2044406
0.077269405 0.0054415073 1.2063924
0.079599455 0.0054520173 1.2087225
0.081938513 0.0054625678 1.2110615
0.084286653 0.0054731593 1.2134097
0.086643912 0.0054837917 1.2157669
0.089010343 0.0054944656 1.2181333
0.091386005 0.0055051809 1.2205089
0.093770951 0.0055159382 1.2228938
0.096165247 0.0055267382 1.2252883
0.098568931 0.0055375807 1.227692
0.10098206 0.0055484646 1.230105
0.1034047 0.0055593923 1.2325277
0.1058369 0.0055703633 1.23496
0.10827871 0.0055813771 1.2374017
0.11076851 0.0055943695 1.2402822
0.11349356 0.0056184931 1.2456305
0.1162422 0.0056428253 1.251025
0.11901476 0.0056673698 1.2564665
0.12181155 0.0056921286 1.2619556
0.12463289 0.0057171048 1.2674929
0.12747908 0.0057423012 1.2730789
0.13035049 0.0057677203 1.2787144
0.13405278 0.0058283815 1.2921631
-0.16551611 0.008102187 1.2830501
-0.16243105 0.0080639524 1.2769953
-0.15937495 0.0080260765 1.2709973
-0.15634742 0.0079885544 1.2650554
-0.15334809 0.0079513825 1.2591689
-0.15037653 0.0079145543 1.2533368
-0.14743237 0.0078780651 1.2475585
-0.14451523 0.0078419112 1.2418332
-0.14183573 0.0078177182 1.2380019
-0.13931823 0.0078018205 1.2354845
-0.13681091 0.0077859876 1.2329772
-0.13431378 0.0077702189 1.2304801
-0.13182673 0.0077545135 1.227993
-0.12934972 0.0077388724 1.2255161
-0.12688269 0.0077232942 1.2230492
-0.12442555 0.007707777 1.2205919
-0.12197826 0.0076923226 1.2181445
-0.11954079 0.0076769311 1.2157072
-0.11711303 0.0076616001 1.2132794
-0.11469496 0.0076463306 1.2108613
-0.11228652 0.0076311221 1.2084529
-0.10988762 0.0076159742 1.2060541
-0.10755034 0.0076045692 1.2042481
-0.1052762 0.0075972518 1.2030892
-0.10300645 0.0075899488 1.2019328
-0.10074105 0.0075826598 1.2007785
-0.098480001 0.0075753848 1.1996264
-0.096223287 0.0075681233 1.1984766
-0.093970895 0.0075608767 1.1973289
-0.091722809 0.0075536431 1.1961834
-0.089479022 0.0075464239 1.1950402
-0.087239526 0.0075392183 1.1938992
-0.085004285 0.0075320252 1.1927601
-0.082773313 0.0075248471 1.1916233
-0.080546603 0.0075176824 1.1904888
-0.078324109 0.0075105312 1.1893563
-0.076105863 0.007503395 1.1882262
-0.073891819 0.0074962713 1.1870981
-0.071681961 0.0074891606 1.1859721
-0.069476299 0.0074820635 1.1848482
-0.067274824 0.0074749803 1.1837265
-0.065077506 0.0074679102 1.1826069
-0.062922835 0.0074654217 1.1822128
-0.060772348 0.0074632708 1.1818722
-0.058623098 0.0074611218 1.1815319
-0.056475084 0.0074589732 1.1811917
-0.0543283 0.0074568256 1.1808516
-0.052182756 0.0074546793 1.1805117
-0.050038453 0.0074525354 1.1801722
-0.047895379 0.0074503925 1.1798328
-0.045753535 0.00744825 1.1794935
-0.043612923 0.0074461089 1.1791545
-0.041473541 0.0074439687 1.1788156
-0.039335389 0.0074418299 1.1784769
-0.037198465 0.007439693 1.1781385
-0.035062768 0.0074375565 1.1778002
-0.032928299 0.0074354224 1.1774622
-0.030795051 0.0074332883 1.1771243
-0.028663032 0.0074311565 1.1767867
-0.026532231 0.0074290247 1.1764491
-0.024402658 0.0074268957 1.1761119
-0.0222743 0.0074247667 1.1757748
-0.020147162 0.0074226386 1.1754378
-0.018021246 0.0074205128 1.1751012
-0.015899032 0.0074195485 1.1749485
-0.013783093 0.0074216654 1.1752837
-0.011665945 0.0074237827 1.175619
-0.0095475875 0.0074259015 1.1759545
-0.0074280212 0.0074280212 1.1762902
-0.0053072446 0.0074301423 1.1766261
-0.0031852562 0.0074322647 1.1769621
-0.0010620555 0.0074343882 1.1772984
0.0010623591 0.0074365134 1.177635
0.003187988 0.0074386382 1.1779715
0.0053148326 0.0074407659 1.1783084
0.0074428944 0.0074428944 1.1786455
0.0095721735 0.0074450243 1.1789827
0.011702672 0.0074471547 1.1793201
0.013834391 0.007449287 1.1796578
0.01596733 0.0074514206 1.1799957
0.018101489 0.0074535548 1.1803336
0.020236874 0.0074556903 1.1806718
0.022373483 0.0074578277 1.1810102
0.024511315 0.0074599655 1.1813488
0.026650375 0.0074621048 1.1816876
0.028790662 0.0074642459 1.1820266
0.030932179 0.0074663879 1.1823659
0.033085927 0.0074710157 1.1830987
0.035253379 0.0074779894 1.184203
0.037424877 0.0074849757 1.1853094
0.039600443 0.007491976 1.1864179
0.041780084 0.0074989893 1.1875286
0.043963809 0.0075060162 1.1886413
0.046151627 0.0075130551 1.189756
0.04834355 0.007520108 1.1908729
0.050539594 0.0075271735 1.1919918
0.052739769 0.0075342529 1.1931129
0.054944091 0.0075413454 1.194236
0.057152558 0.007548451 1.1953613
0.059365198 0.0075555709 1.1964887
0.061582014 0.0075627035 1.1976182
0.063803017 0.0075698495 1.1987499
0.066028222 0.0075770095 1.1998837
0.068257652 0.0075841835 1.2010198
0.070491292 0.00759137 1.2021579
0.072729178 0.0075985705 1.2032981
0.074971311 0.007605785 1.2044406
0.077269413 0.0076181111 1.2063925
0.079599455 0.0076328241 1.2087225
0.08193852 0.0076475954 1.2110616
0.08428666 0.0076624234 1.2134098
0.086643919 0.0076773092 1.215767
0.08901035 0.0076922528 1.2181334
0.091386013 0.007707254 1.2205091
0.093770966 0.0077223149 1.2228941
0.096165247 0.0077374335 1.2252883
0.098568931 0.0077526127 1.227692
0.10098206 0.0077678505 1.230105
0.1034047 0.0077831494 1.2325277
0.1058369 0.0077985083 1.23496
0.10827871 0.0078139277 1.2374017
0.11076853 0.0078321174 1.2402823
0.11349356 0.0078658909 1.2456305
0.11624222 0.0078999558 1.2510251
0.11901476 0.0079343179 1.2564665
0.12181158 0.0079689818 1.2619559
0.1246329 0.0080039473 1.267493
0.12747909 0.0080392221 1.273079
0.13035049 0.0080748089 1.2787145
0.13405286 0.0081597399 1.292164
-0.16551608 0.010417095 1.2830498
-0.16243102 0.010367937 1.2769951
-0.15937492 0.010319239 1.270997
-0.15634741 0.010270998 1.2650553
-0.15334804 0.010223203 1.2591685
-0.1503765 0.010175853 1.2533365
-0.14743234 0.01012894 1.2475582
-0.14451522 0.010082456 1.2418331
-0.14183572 0.01005135 1.2380018
-0.13931821 0.010030911 1.2354844
-0.13681091 0.010010555 1.2329772
-0.13431378 0.0099902805 1.23048
-0.13182673 0.0099700885 1.227993
-0.12934971 0.0099499775 1.225516
-0.12688267 0.0099299485 1.223049
-0.12442556 0.0099100005 1.220592
-0.12197826 0.0098901289 1.2181445
-0.11954077 0.0098703392 1.2157071
-0.11711303 0.0098506287 1.2132794
-0.11469496 0.0098309964 1.2108613
-0.1122865 0.0098114423 1.2084528
-0.10988761 0.0097919656 1.206054
-0.10755033 0.0097773029 1.204248
-0.1052762 0.0097678946 1.2030892
-0.10300644 0.009758505 1.2019327
-0.10074104 0.0097491331 1.2007784
-0.098479994 0.0097397799 1.1996263
-0.096223287 0.0097304443 1.1984766
-0.09397088 0.0097211255 1.1973288
-0.091722809 0.0097118262 1.1961834
-0.089479014 0.0097025437 1.1950401
-0.087239519 0.0096932799 1.193899
-0.085004285 0.0096840328 1.1927601
-0.082773305 0.0096748024 1.1916232
-0.080546588 0.0096655907 1.1904887
-0.078324109 0.0096563976 1.1893563
-0.076105855 0.0096472213 1.1882261
-0.073891811 0.0096380617 1.187098
-0.071681954 0.0096289199 1.185972
-0.069476292 0.0096197948 1.1848481
-0.067274816 0.0096106883 1.1837264
-0.065077499 0.0096015977 1.1826068
-0.062922835 0.0095983986 1.1822127
-0.060772348 0.0095956335 1.1818722
-0.058623094 0.0095928693 1.1815318
-0.056475077 0.009590107 1.1811916
-0.054328296 0.0095873466 1.1808515
-0.052182756 0.009584588 1.1805117
-0.050038446 0.0095818304 1.1801721
-0.047895376 0.0095790746 1.1798327
-0.045753531 0.0095763206 1.1794934
-0.04361292 0.0095735677 1.1791544
-0.041473538 0.0095708156 1.1788155
-0.039335385 0.0095680663 1.1784768
-0.037198465 0.0095653199 1.1781385
-0.035062768 0.0095625725 1.1778002
-0.032928299 0.0095598288 1.1774622
-0.030795051 0.0095570851 1.1771243
-0.028663032 0.0095543442 1.1767867
-0.026532231 0.0095516033 1.1764491
-0.024402658 0.0095488662 1.1761119
-0.0222743 0.009546129 1.1757748
-0.020147162 0.0095433928 1.1754378
-0.018021246 0.0095406594 1.1751012
-0.01589903 0.0095394189 1.1749483
-0.013783092 0.0095421402 1.1752836
-0.011665943 0.0095448624 1.1756189
-0.0095475866 0.0095475866 1.1759543
-0.0074280202 0.0095503116 1.17629
-0.0053072441 0.0095530394 1.176626
-0.0031852559 0.0095557673 1.176962
-0.0010620554 0.0095584979 1.1772983
0.001062359 0.0095612304 1.1776348
0.003187988 0.0095639639 1.1779715
0.0053148326 0.0095666992 1.1783084
0.0074428944 0.0095694363 1.1786455
0.0095721735 0.0095721735 1.1789827
0.011702672 0.0095749134 1.1793201
0.013834391 0.0095776552 1.1796578
0.01596733 0.009580398 1.1799957
0.018101489 0.0095831417 1.1803336
0.020236874 0.0095858872 1.1806718
0.022373483 0.0095886355 1.1810102
0.024511315 0.0095913839 1.1813488
0.026650375 0.009594135 1.1816876
0.028790662 0.009596887 1.1820266
0.030932179 0.0095996419 1.1823659
0.033085924 0.0096055903 1.1830986
0.035253379 0.009614558 1.184203
0.037424877 0.0096235406 1.1853094
0.039600443 0.0096325409 1.1864179
0.041780081 0.009641557 1.1875285
0.043963805 0.0096505908 1.1886412
0.046151619 0.0096596414 1.1897559
0.048343547 0.0096687097 1.1908728
0.050539594 0.0096777948 1.1919918
0.052739769 0.0096868966 1.1931129
0.054944091 0.0096960161 1.194236
0.057152558 0.0097051514 1.1953613
0.059365198 0.0097143054 1.1964887
0.061582014 0.0097234761 1.1976182
0.063803017 0.0097326636 1.1987499
0.066028222 0.0097418688 1.1998837
0.068257652 0.0097510926 1.2010198
0.070491292 0.0097603332 1.2021579
0.072729178 0.0097695906 1.2032981
0.074971311 0.0097788665 1.2044406
0.077269413 0.0097947139 1.2063925
0.079599455 0.009813631 1.2087225
0.08193852 0.0098326225 1.2110616
0.08428666 0.0098516876 1.2134098
0.086643919 0.0098708263 1.215767
0.08901035 0.0098900395 1.2181334
0.09138602 0.0099093271 1.2205092
0.093770966 0.0099286903 1.2228941
0.096165247 0.0099481288 1.2252883
0.098568931 0.0099676447 1.227692
0.10098206 0.0099872369 1.230105
0.1034047 0.010006906 1.2325277
0.1058369 0.010026653 1.23496
0.10827871 0.010046478 1.2374017
0.11076853 0.010069866 1.2402823
0.11349356 0.010113288 1.2456305
0.11624222 0.010157087 1.2510251
0.11901476 0.010201265 1.2564665
0.12181159 0.010245834 1.261956
0.12463291 0.01029079 1.2674931
0.12747911 0.010336144 1.2730792
0.1303505 0.010381899 1.2787147
0.13405296 0.010491101 1.2921649
-0.16551605 0.012732004 1.2830496
-0.16243099 0.01267192 1.2769948
-0.15937491 0.012612402 1.2709969
-0.15634738 0.012553439 1.2650551
-0.15334803 0.012495025 1.2591684
-0.15037647 0.012437152 1.2533363
-0.14743231 0.012379812 1.247558
-0.14451519 0.012323 1.2418329
-0.14183572 0.012284984 1.2380018
-0.1393182 0.012260001 1.2354842
-0.13681091 0.012235122 1.232977
-0.13431376 0.012210341 1.2304798
-0.13182671 0.012185663 1.2279929
-0.12934969 0.012161083 1.2255158
-0.12688267 0.012136603 1.2230489
-0.12442555 0.012112222 1.2205919
-0.12197825 0.012087935 1.2181444
-0.11954077 0.012063746 1.2157069
-0.11711302 0.012039656 1.2132792
-0.11469495 0.012015661 1.2108612
-0.1122865 0.011991763 1.2084528
-0.1098876 0.011967957 1.2060539
-0.10755032 0.011950036 1.2042478
-0.10527619 0.011938537 1.2030891
-0.10300644 0.011927062 1.2019327
-0.10074104 0.011915606 1.2007784
-0.098479986 0.011904174 1.1996262
-0.096223272 0.011892764 1.1984764
-0.09397088 0.011881376 1.1973288
-0.091722801 0.011870009 1.1961833
-0.089479007 0.011858664 1.19504
-0.087239504 0.011847341 1.1938989
-0.085004278 0.011836039 1.19276
-0.082773305 0.011824758 1.1916232
-0.080546588 0.0118135 1.1904887
-0.078324109 0.011802264 1.1893563
-0.076105855 0.011791048 1.1882261
-0.073891811 0.011779854 1.187098
-0.071681954 0.011768679 1.185972
-0.069476292 0.011757527 1.1848481
-0.067274816 0.011746396 1.1837264
-0.065077499 0.011735287 1.1826068
-0.062922835 0.011731376 1.1822127
-0.060772348 0.011727997 1.1818722
-0.058623094 0.011724618 1.1815318
-0.056475077 0.011721242 1.1811916
-0.054328296 0.011717867 1.1808515
-0.052182756 0.011714496 1.1805117
-0.050038446 0.011711126 1.1801721
-0.047895376 0.011707759 1.1798327
-0.045753531 0.011704392 1.1794934
-0.04361292 0.011701027 1.1791544
-0.041473538 0.011697664 1.1788155
-0.039335385 0.011694304 1.1784768
-0.037198465 0.011690946 1.1781385
-0.035062764 0.011687588 1.1778001
-0.032928295 0.011684234 1.1774621
-0.030795051 0.011680881 1.1771243
-0.02866303 0.011677531 1.1767865
-0.026532231 0.011674182 1.1764491
-0.024402656 0.011670835 1.1761118
-0.022274299 0.01166749 1.1757747
-0.020147162 0.011664147 1.1754378
-0.018021245 0.011660805 1.175101
-0.01589903 0.01165929 1.1749483
-0.013783092 0.011662615 1.1752836
-0.011665943 0.011665943 1.1756189
-0.0095475866 0.011669273 1.1759543
-0.0074280202 0.011672603 1.17629
-0.0053072441 0.011675937 1.176626
-0.0031852559 0.011679271 1.176962
-0.0010620554 0.011682609 1.1772983
0.001062359 0.011685948 1.1776348
0.003187988 0.011689289 1.1779715
0.0053148326 0.011692632 1.1783084
0.0074428939 0.011695976 1.1786454
0.0095721735 0.011699324 1.1789827
0.011702672 0.011702672 1.1793201
0.013834389 0.011706022 1.1796577
0.015967328 0.011709374 1.1799955
0.018101487 0.011712728 1.1803335
0.020236874 0.011716085 1.1806718
0.022373483 0.011719443 1.1810102
0.024511315 0.011722803 1.1813488
0.026650375 0.011726164 1.1816876
0.028790662 0.011729529 1.1820266
0.030932177 0.011732894 1.1823658
0.033085924 0.011740166 1.1830986
0.035253379 0.011751126 1.184203
0.037424877 0.011762105 1.1853094
0.039600443 0.011773105 1.1864179
0.041780081 0.011784125 1.1875285
0.043963805 0.011795167 1.1886412
0.046151619 0.011806228 1.1897559
0.048343547 0.011817312 1.1908728
0.050539594 0.011828416 1.1919918
0.052739765 0.011839539 1.1931127
0.054944083 0.011850685 1.1942359
0.057152558 0.011861851 1.1953613
0.059365194 0.011873038 1.1964886
0.061582007 0.011884247 1.1976181
0.06380301 0.011895477 1.1987498
0.066028222 0.011906729 1.1998837
0.068257645 0.011918001 1.2010196
0.070491284 0.011929295 1.2021577
0.07272917 0.01194061 1.203298
0.074971303 0.011951947 1.2044405
0.077269413 0.011971317 1.2063925
0.079599455 0.011994438 1.2087225
0.08193852 0.01201765 1.2110616
0.08428666 0.012040951 1.2134098
0.086643919 0.012064343 1.215767
0.08901035 0.012087826 1.2181334
0.09138602 0.0121114 1.2205092
0.093770966 0.012135066 1.2228941
0.096165247 0.012158824 1.2252883
0.098568931 0.012182677 1.227692
0.10098206 0.012206622 1.230105
0.1034047 0.012230664 1.2325277
0.1058369 0.012254799 1.23496
0.10827871 0.012279029 1.2374017
0.11076853 0.012307614 1.2402823
0.11349358 0.012360686 1.2456306
0.11624222 0.012414218 1.2510252
0.11901478 0.012468215 1.2564666
0.1218116 0.012522688 1.2619561
0.12463292 0.012577634 1.2674932
0.12747912 0.012633066 1.2730793
0.13035052 0.012688988 1.2787148
0.13405305 0.012822466 1.2921658
-0.16551603 0.015046912 1.2830495
-0.16243097 0.014975905 1.2769947
-0.15937488 0.014905564 1.2709967
-0.15634735 0.01483588 1.2650548
-0.153348 0.014766845 1.2591681
-0.15037645 0.01469845 1.2533362
-0.1474323 0.014630686 1.2475579
-0.14451517 0.014563545 1.2418327
-0.1418357 0.014518616 1.2380017
-0.1393182 0.014489093 1.2354842
-0.1368109 0.014459688 1.2329769
-0.13431376 0.014430404 1.2304798
-0.1318267 0.014401237 1.2279928
-0.12934969 0.014372189 1.2255158
-0.12688267 0.014343258 1.2230489
-0.12442553 0.014314442 1.2205918
-0.12197825 0.01428574 1.2181444
-0.11954075 0.014257153 1.2157068
-0.11711301 0.014228683 1.2132791
-0.11469494 0.014200325 1.2108611
-0.11228649 0.014172081 1.2084527
-0.1098876 0.014143949 1.2060539
-0.10755032 0.014122769 1.2042478
-0.10527619 0.01410918 1.2030891
-0.10300644 0.014095617 1.2019327
-0.10074104 0.014082081 1.2007784
-0.098479986 0.014068569 1.1996262
-0.096223272 0.014055085 1.1984764
-0.09397088 0.014041626 1.1973288
-0.091722801 0.014028192 1.1961833
-0.089479007 0.014014784 1.19504
-0.087239504 0.014001402 1.1938989
-0.085004278 0.013988046 1.19276
-0.082773313 0.013974716 1.1916233
-0.08054658 0.013961407 1.1904886
-0.078324102 0.013948128 1.1893562
-0.076105855 0.013934875 1.1882261
-0.073891804 0.013921644 1.1870979
-0.071681947 0.013908438 1.1859719
-0.069476292 0.013895259 1.1848481
-0.067274809 0.013882103 1.1837263
-0.065077491 0.013868974 1.1826067
-0.062922835 0.013864353 1.1822127
-0.060772341 0.013860359 1.1818721
-0.058623087 0.013856366 1.1815317
-0.056475073 0.013852376 1.1811914
-0.054328296 0.013848389 1.1808515
-0.052182749 0.013844403 1.1805116
-0.050038446 0.013840421 1.1801721
-0.047895368 0.01383644 1.1798326
-0.045753524 0.013832461 1.1794933
-0.043612916 0.013828485 1.1791543
-0.041473538 0.013824512 1.1788155
-0.039335385 0.01382054 1.1784768
-0.037198462 0.013816571 1.1781384
-0.035062764 0.013812603 1.1778001
-0.032928292 0.013808639 1.177462
-0.030795049 0.013804677 1.1771241
-0.028663026 0.013800716 1.1767864
-0.026532227 0.013796759 1.1764489
-0.024402652 0.013792804 1.1761117
-0.022274297 0.01378885 1.1757746
-0.02014716 0.013784899 1.1754377
-0.018021243 0.01378095 1.1751009
-0.01589903 0.013779161 1.1749483
-0.013783092 0.013783092 1.1752836
-0.011665943 0.013787024 1.1756189
-0.0095475866 0.013790959 1.1759543
-0.0074280202 0.013794895 1.17629
-0.0053072441 0.013798835 1.176626
-0.0031852559 0.013802775 1.176962
-0.0010620554 0.013806719 1.1772983
0.001062359 0.013810666 1.1776348
0.003187988 0.013814614 1.1779715
0.0053148326 0.013818565 1.1783084
0.0074428939 0.013822517 1.1786454
0.0095721735 0.013826474 1.1789827
0.011702672 0.01383043 1.1793201
0.013834389 0.013834389 1.1796577
0.015967328 0.013838351 1.1799955
0.018101487 0.013842314 1.1803335
0.020236874 0.013846282 1.1806718
0.022373483 0.013850251 1.1810102
0.024511315 0.013854221 1.1813488
0.026650375 0.013858194 1.1816876
0.028790662 0.01386217 1.1820266
0.030932177 0.013866148 1.1823658
0.033085924 0.013874741 1.1830986
0.035253379 0.013887694 1.184203
0.037424877 0.013900669 1.1853094
0.039600443 0.01391367 1.1864179
0.041780081 0.013926693 1.1875285
0.043963805 0.013939743 1.1886412
0.046151619 0.013952816 1.1897559
0.048343547 0.013965914 1.1908728
0.050539594 0.013979036 1.1919918
0.052739765 0.013992182 1.1931127
0.054944083 0.014005355 1.1942359
0.057152558 0.014018552 1.1953613
0.059365194 0.014031773 1.1964886
0.061582007 0.01404502 1.1976181
0.06380301 0.014058291 1.1987498
0.066028222 0.014071588 1.1998837
0.068257645 0.01408491 1.2010196
0.070491284 0.014098258 1.2021577
0.07272917 0.01411163 1.203298
0.074971303 0.014125028 1.2044405
0.077269413 0.014147921 1.2063925
0.079599455 0.014175245 1.2087225
0.08193852 0.014202677 1.2110616
0.08428666 0.014230215 1.2134098
0.086643919 0.014257859 1.215767
0.08901035 0.014285612 1.2181334
0.09138602 0.014313473 1.2205092
0.093770966 0.014341442 1.2228941
0.096165247 0.014369519 1.2252883
0.098568931 0.01439771 1.227692
0.10098206 0.014426008 1.230105
0.1034047 0.014454421 1.2325277
0.1058369 0.014482944 1.23496
0.10827871 0.01451158 1.2374017
0.11076853 0.014545363 1.2402824
0.11349358 0.014608085 1.2456307
0.11624224 0.01467135 1.2510253
0.11901481 0.014735167 1.256467
0.1218116 0.01479954 1.2619561
0.12463292 0.014864477 1.2674932
0.12747912 0.014929987 1.2730793
0.13035052 0.014996077 1.2787148
0.13405314 0.015153834 1.2921667
-0.165516 0.017361818 1.2830492
-0.16243094 0.017279888 1.2769945
-0.15937485 0.017198725 1.2709965
-0.15634733 0.017118322 1.2650547
-0.15334797 0.017038664 1.2591679
-0.15037642 0.016959747 1.253336
-0.14743227 0.016881557 1.2475576
-0.14451514 0.016804086 1.2418325
-0.14183569 0.016752247 1.2380015
-0.13931817 0.016718181 1.235484
-0.13681088 0.016684255 1.2329768
-0.13431373 0.016650463 1.2304796
-0.1318267 0.01661681 1.2279927
-0.12934968 0.016583292 1.2255156
-0.12688264 0.016549909 1.2230487
-0.12442552 0.016516661 1.2205917
-0.12197823 0.016483545 1.2181443
-0.11954074 0.01645056 1.2157067
-0.11711299 0.01641771 1.213279
-0.11469492 0.016384989 1.210861
-0.11228647 0.016352398 1.2084525
-0.10988759 0.016319938 1.2060536
-0.10755031 0.0162955 1.2042477
-0.10527618 0.016279822 1.203089
-0.10300643 0.016264172 1.2019325
-0.10074103 0.016248554 1.2007782
-0.098479986 0.016232964 1.1996262
-0.096223265 0.016217405 1.1984763
-0.093970872 0.016201874 1.1973287
-0.091722786 0.016186375 1.1961832
-0.089479007 0.016170904 1.19504
-0.087239504 0.016155465 1.1938989
-0.085004278 0.016140053 1.19276
-0.082773305 0.016124669 1.1916232
-0.080546588 0.016109318 1.1904887
-0.078324094 0.016093992 1.1893561
-0.076105848 0.016078699 1.188226
-0.073891804 0.016063435 1.1870979
-0.071681947 0.016048197 1.1859717
-0.069476284 0.01603299 1.184848
-0.067274801 0.01601781 1.1837262
-0.065077491 0.016002661 1.1826067
-0.062922835 0.01599733 1.1822127
-0.060772341 0.015992722 1.1818721
-0.058623087 0.015988115 1.1815317
-0.056475073 0.015983511 1.1811914
-0.054328296 0.01597891 1.1808515
-0.052182749 0.015974311 1.1805116
-0.050038446 0.015969718 1.1801721
-0.047895368 0.015965123 1.1798326
-0.045753524 0.015960531 1.1794933
-0.043612916 0.015955944 1.1791543
-0.041473538 0.01595136 1.1788155
-0.039335385 0.015946778 1.1784768
-0.037198462 0.015942197 1.1781384
-0.035062764 0.015937619 1.1778001
-0.032928292 0.015933044 1.177462
-0.030795045 0.015928471 1.177124
-0.028663022 0.015923902 1.1767863
-0.026532225 0.015919335 1.1764488
-0.02440265 0.015914772 1.1761116
-0.022274297 0.015910212 1.1757746
-0.020147158 0.01590565 1.1754376
-0.018021243 0.015901096 1.1751009
-0.01589903 0.01589903 1.1749483
-0.01378309 0.015903566 1.1752834
-0.011665942 0.015908103 1.1756188
-0.0095475856 0.015912643 1.1759542
-0.0074280202 0.015917186 1.17629
-0.0053072441 0.015921732 1.176626
-0.0031852557 0.015926277 1.1769619
-0.0010620554 0.01593083 1.1772983
0.0010623588 0.015935382 1.1776347
0.0031879875 0.015939938 1.1779714
0.0053148321 0.015944496 1.1783082
0.0074428939 0.015949057 1.1786454
0.0095721725 0.015953621 1.1789826
0.01170267 0.015958186 1.17932
0.013834389 0.015962757 1.1796577
0.015967328 0.015967328 1.1799955
0.018101487 0.015971901 1.1803335
0.020236872 0.015976477 1.1806717
0.022373481 0.015981058 1.1810101
0.024511313 0.015985638 1.1813487
0.026650371 0.015990224 1.1816875
0.028790658 0.015994811 1.1820265
0.030932173 0.015999399 1.1823657
0.033085924 0.016009318 1.1830986
0.035253379 0.016024262 1.184203
0.037424877 0.016039234 1.1853094
0.039600443 0.016054234 1.1864179
0.041780081 0.016069261 1.1875285
0.043963805 0.016084319 1.1886412
0.046151619 0.016099403 1.1897559
0.048343547 0.016114516 1.1908728
0.050539594 0.016129658 1.1919918
0.052739765 0.016144825 1.1931127
0.054944083 0.016160024 1.1942359
0.057152558 0.016175251 1.1953613
0.059365194 0.016190507 1.1964886
0.061582007 0.016205791 1.1976181
0.06380301 0.016221104 1.1987498
0.066028222 0.016236449 1.1998837
0.068257645 0.016251819 1.2010196
0.070491284 0.01626722 1.2021577
0.07272917 0.01628265 1.203298
0.074971303 0.01629811 1.2044405
0.077269413 0.016324524 1.2063925
0.079599455 0.016356053 1.2087225
0.08193852 0.016387705 1.2110616
0.08428666 0.01641948 1.2134098
0.086643919 0.016451377 1.215767
0.08901035 0.016483398 1.2181334
0.09138602 0.016515546 1.2205092
0.093770966 0.016547818 1.2228941
0.096165247 0.016580215 1.2252883
0.098568931 0.016612742 1.227692
0.10098206 0.016645394 1.230105
0.1034047 0.016678177 1.2325277
0.1058369 0.01671109 1.23496
0.10827871 0.016744131 1.2374017
0.11076854 0.016783113 1.2402825
0.1134936 0.016855484 1.2456309
0.11624224 0.016928481 1.2510253
0.11901481 0.017002115 1.256467
0.1218116 0.017076392 1.2619561
0.12463293 0.01715132 1.2674934
0.12747912 0.017226908 1.2730793
0.13035053 0.017303167 1.2787149
0.13405323 0.017485205 1.2921675
-0.16551597 0.019676724 1.283049
-0.16243091 0.019583868 1.2769942
-0.15937482 0.019491883 1.2709962
-0.15634729 0.019400759 1.2650543
-0.15334794 0.019310482 1.2591677
-0.15037639 0.019221043 1.2533357
-0.14743225 0.01913243 1.2475575
-0.14451513 0.01904463 1.2418324
-0.14183569 0.018985879 1.2380015
-0.13931815 0.01894727 1.2354839
-0.13681087 0.018908819 1.2329767
-0.13431372 0.018870523 1.2304795
-0.13182668 0.018832384 1.2279925
-0.12934966 0.018794395 1.2255155
-0.12688263 0.018756563 1.2230486
-0.12442551 0.018718882 1.2205915
-0.12197822 0.018681349 1.2181442
-0.11954074 0.018643968 1.2157067
-0.11711299 0.018606735 1.2132789
-0.11469492 0.018569652 1.2108608
-0.11228647 0.018532718 1.2084525
-0.10988757 0.018495928 1.2060535
-0.10755031 0.018468235 1.2042477
-0.10527617 0.018450463 1.2030889
-0.10300642 0.018432727 1.2019324
-0.10074102 0.018415025 1.2007781
-0.098479971 0.018397357 1.1996261
-0.096223257 0.018379724 1.1984762
-0.093970865 0.018362124 1.1973286
-0.091722779 0.018344557 1.1961831
-0.089478999 0.018327024 1.1950399
-0.087239496 0.018309524 1.1938988
-0.08500427 0.018292058 1.1927599
-0.082773298 0.018274624 1.1916231
-0.08054658 0.018257225 1.1904886
-0.078324087 0.018239856 1.189356
-0.076105841 0.018222526 1.1882259
-0.073891796 0.018205225 1.1870978
-0.071681947 0.018187955 1.1859717
-0.069476284 0.01817072 1.1848478
-0.067274801 0.018153518 1.1837262
-0.065077484 0.018136349 1.1826066
-0.062922828 0.018130306 1.1822126
-0.060772337 0.018125083 1.181872
-0.058623087 0.018119862 1.1815317
-0.056475066 0.018114643 1.1811913
-0.054328289 0.01810943 1.1808513
-0.052182745 0.018104218 1.1805115
-0.050038442 0.018099012 1.180172
-0.047895364 0.018093804 1.1798325
-0.045753524 0.018088603 1.1794933
-0.043612912 0.018083401 1.1791542
-0.04147353 0.018078206 1.1788154
-0.039335381 0.018073013 1.1784767
-0.037198458 0.018067822 1.1781383
-0.035062764 0.018062636 1.1778001
-0.032928292 0.018057451 1.177462
-0.030795045 0.018052269 1.177124
-0.028663022 0.018047089 1.1767863
-0.026532225 0.018041912 1.1764488
-0.02440265 0.018036742 1.1761116
-0.022274297 0.018031573 1.1757746
-0.020147158 0.018026404 1.1754376
-0.018021243 0.018021243 1.1751009
-0.01589903 0.018018901 1.1749483
-0.01378309 0.01802404 1.1752834
-0.011665942 0.018029183 1.1756188
-0.0095475856 0.018034328 1.1759542
-0.0074280202 0.018039478 1.17629
-0.0053072441 0.01804463 1.176626
-0.0031852557 0.018049782 1.1769619
-0.0010620554 0.018054942 1.1772983
0.0010623588 0.018060099 1.1776347
0.0031879875 0.018065263 1.1779714
0.0053148321 0.01807043 1.1783082
0.0074428939 0.018075598 1.1786454
0.0095721725 0.018080771 1.1789826
0.01170267 0.018085945 1.17932
0.013834389 0.018091124 1.1796577
0.015967328 0.018096305 1.1799955
0.018101487 0.018101487 1.1803335
0.020236872 0.018106675 1.1806717
0.022373481 0.018111864 1.1810101
0.024511313 0.018117057 1.1813487
0.026650371 0.018122252 1.1816875
0.028790658 0.018127453 1.1820265
0.030932173 0.018132653 1.1823657
0.033085924 0.018143892 1.1830986
0.035253376 0.018160829 1.1842029
0.037424874 0.018177796 1.1853093
0.039600439 0.018194797 1.1864178
0.041780077 0.018211829 1.1875284
0.043963797 0.018228892 1.1886411
0.046151619 0.018245989 1.1897559
0.048343547 0.018263118 1.1908728
0.050539594 0.018280279 1.1919918
0.052739765 0.018297469 1.1931127
0.054944083 0.018314695 1.1942359
0.057152558 0.018331952 1.1953613
0.059365194 0.018349241 1.1964886
0.061582007 0.018366564 1.1976181
0.06380301 0.018383918 1.1987498
0.066028222 0.018401308 1.1998837
0.068257645 0.018418729 1.2010196
0.070491284 0.018436182 1.2021577
0.07272917 0.018453669 1.203298
0.074971303 0.018471191 1.2044405
0.077269413 0.018501127 1.2063925
0.079599455 0.018536858 1.2087225
0.08193852 0.018572731 1.2110616
0.08428666 0.018608743 1.2134098
0.086643919 0.018644894 1.215767
0.08901035 0.018681185 1.2181334
0.09138602 0.018717619 1.2205092
0.093770966 0.018754194 1.2228941
0.096165247 0.01879091 1.2252883
0.098568931 0.018827774 1.227692
0.10098206 0.018864781 1.230105
0.1034047 0.018901935 1.2325277
0.1058369 0.018939234 1.23496
0.10827871 0.018976681 1.2374017
0.11076854 0.019020861 1.2402825
0.1134936 0.019102883 1.2456309
0.11624224 0.019185612 1.2510253
0.11901482 0.019269066 1.2564671
0.12181161 0.019353246 1.2619562
0.12463293 0.019438164 1.2674934
0.12747914 0.019523831 1.2730794
0.13035055 0.019610258 1.278715
0.13405333 0.019816579 1.2921685
-0.16551594 0.021991629 1.2830487
-0.16243088 0.021887848 1.276994
-0.15937479 0.021785041 1.270996
-0.15634727 0.021683199 1.2650542
-0.15334792 0.021582302 1.2591676
-0.15037636 0.021482339 1.2533355
-0.14743222 0.0213833 1.2475573
-0.1445151 0.021285171 1.2418321
-0.14183567 0.021219511 1.2380013
-0.13931815 0.021176361 1.2354839
-0.13681085 0.021133384 1.2329766
-0.13431372 0.021090584 1.2304795
-0.13182667 0.021047955 1.2279924
-0.12934966 0.0210055 1.2255155
-0.12688263 0.020963216 1.2230486
-0.1244255 0.020921102 1.2205914
-0.12197821 0.020879153 1.2181441
-0.11954073 0.020837374 1.2157066
-0.11711297 0.020795761 1.2132788
-0.1146949 0.020754315 1.2108607
-0.11228646 0.020713035 1.2084523
-0.10988757 0.020671919 1.2060535
-0.10755029 0.020640966 1.2042476
-0.10527617 0.020621106 1.2030889
-0.10300641 0.020601282 1.2019323
-0.10074102 0.020581499 1.2007781
-0.098479964 0.020561751 1.199626
-0.096223257 0.020542044 1.1984762
-0.093970858 0.020522371 1.1973284
-0.091722779 0.020502739 1.1961831
-0.089478992 0.020483142 1.1950397
-0.087239489 0.020463584 1.1938987
-0.085004263 0.020444063 1.1927598
-0.082773298 0.02042458 1.1916231
-0.080546573 0.020405132 1.1904885
-0.078324094 0.020385724 1.1893561
-0.076105833 0.020366348 1.1882257
-0.073891789 0.020347014 1.1870977
-0.071681939 0.020327713 1.1859716
-0.069476284 0.020308452 1.1848478
-0.067274794 0.020289224 1.1837261
-0.065077476 0.020270035 1.1826065
-0.06292282 0.020263281 1.1822125
-0.06077233 0.020257443 1.1818719
-0.058623079 0.020251609 1.1815315
-0.056475066 0.020245777 1.1811913
-0.054328285 0.020239949 1.1808512
-0.052182745 0.020234125 1.1805115
-0.050038438 0.020228304 1.1801718
-0.047895364 0.020222487 1.1798325
-0.04575352 0.020216672 1.1794932
-0.043612912 0.02021086 1.1791542
-0.041473527 0.020205053 1.1788152
-0.039335378 0.020199247 1.1784766
-0.037198458 0.020193448 1.1781383
-0.03506276 0.02018765 1.1777999
-0.032928288 0.020181855 1.1774619
-0.030795045 0.020176064 1.177124
-0.028663022 0.020170275 1.1767863
-0.026532225 0.020164492 1.1764488
-0.02440265 0.02015871 1.1761116
-0.022274293 0.020152932 1.1757745
-0.020147158 0.020147158 1.1754376
-0.018021241 0.020141385 1.1751008
-0.015899029 0.02013877 1.1749482
-0.01378309 0.020144517 1.1752834
-0.011665942 0.020150265 1.1756188
-0.0095475856 0.020156013 1.1759542
-0.0074280198 0.020161767 1.1762899
-0.0053072437 0.020167526 1.1766258
-0.0031852557 0.020173285 1.1769619
-0.0010620552 0.02017905 1.1772982
0.0010623588 0.020184817 1.1776347
0.0031879873 0.020190585 1.1779712
0.0053148316 0.02019636 1.1783081
0.007442893 0.020202138 1.1786453
0.0095721716 0.020207919 1.1789825
0.011702669 0.020213701 1.1793199
0.013834388 0.02021949 1.1796576
0.015967326 0.020225281 1.1799954
0.018101485 0.020231074 1.1803334
0.02023687 0.02023687 1.1806716
0.022373477 0.020242671 1.18101
0.024511309 0.020248473 1.1813486
0.026650369 0.02025428 1.1816874
0.028790656 0.020260092 1.1820264
0.030932173 0.020265907 1.1823657
0.033085924 0.020278469 1.1830986
0.035253376 0.020297397 1.1842029
0.037424874 0.020316361 1.1853093
0.039600439 0.020335361 1.1864178
0.041780077 0.020354396 1.1875284
0.043963805 0.020373469 1.1886412
0.046151619 0.020392576 1.1897559
0.048343547 0.02041172 1.1908728
0.050539594 0.0204309 1.1919918
0.052739765 0.020450113 1.1931127
0.054944083 0.020469364 1.1942359
0.057152558 0.020488653 1.1953613
0.059365194 0.020507976 1.1964886
0.061582007 0.020527337 1.1976181
0.06380301 0.020546732 1.1987498
0.066028222 0.020566167 1.1998837
0.068257645 0.020585638 1.2010196
0.070491284 0.020605145 1.2021577
0.07272917 0.02062469 1.203298
0.074971303 0.020644272 1.2044405
0.077269413 0.02067773 1.2063925
0.079599455 0.020717666 1.2087225
0.08193852 0.020757759 1.2110616
0.08428666 0.020798007 1.2134098
0.086643919 0.02083841 1.215767
0.08901035 0.020878971 1.2181334
0.09138602 0.020919692 1.2205092
0.093770966 0.020960569 1.2228941
0.096165247 0.021001605 1.2252883
0.098568931 0.021042807 1.227692
0.10098206 0.021084165 1.230105
0.1034047 0.021125691 1.2325277
0.1058369 0.021167381 1.23496
0.10827871 0.021209233 1.2374017
0.11076856 0.021258611 1.2402827
0.1134936 0.021350281 1.2456309
0.11624228 0.02144275 1.2510258
0.11901483 0.021536017 1.2564672
0.12181162 0.021630101 1.2619563
0.12463295 0.021725008 1.2674935
0.12747914 0.021820754 1.2730795
0.13035055 0.021917347 1.278715
0.13405342 0.022147955 1.2921693
-0.16551591 0.024306532 1.2830485
-0.16243085 0.024191828 1.2769938
-0.15937477 0.024078202 1.2709959
-0.15634726 0.023965638 1.265054
-0.15334789 0.023854118 1.2591673
-0.15037635 0.023743635 1.2533354
-0.14743219 0.023634169 1.247557
-0.14451507 0.023525709 1.2418319
-0.14183566 0.023453141 1.2380012
-0.13931814 0.023405448 1.2354838
-0.13681084 0.023357948 1.2329764
-0.1343137 0.023310643 1.2304794
-0.13182665 0.023263527 1.2279923
-0.12934965 0.023216603 1.2255154
-0.12688261 0.02316987 1.2230484
-0.12442549 0.02312332 1.2205913
-0.12197821 0.023076959 1.2181441
-0.11954073 0.023030782 1.2157066
-0.11711297 0.02298479 1.2132788
-0.11469489 0.022938978 1.2108606
-0.11228645 0.022893352 1.2084522
-0.10988756 0.022847908 1.2060534
-0.10755029 0.022813696 1.2042475
-0.10527616 0.022791745 1.2030888
-0.10300641 0.022769837 1.2019323
-0.10074101 0.022747969 1.200778
-0.098479964 0.022726145 1.199626
-0.096223243 0.022704361 1.1984761
-0.093970858 0.02268262 1.1973284
-0.091722772 0.02266092 1.196183
-0.089478992 0.022639262 1.1950397
